# This PCD file was generated using the MATLAB® pcwrite function
# from Computer Vision System Toolbox®.
# .PCD v.7 - Point Cloud Data file format
VERSION .7
FIELDS x y z
SIZE 8 8 8
TYPE F F F
COUNT 1 1 1
WIDTH 185
HEIGHT 1
VIEWPOINT 0 0 0 1 0 0 0
POINTS 185
DATA ascii
-75.167367714504948 -95.493087833304429 -106.572428628645200
-75.220932455362799 -95.323514454038303 -106.256095176992890
-75.290196971282853 -95.141487437979961 -105.943620115989060
-75.370431269279564 -94.949903623005000 -105.635083518613700
-75.456958864260898 -94.751948021238405 -105.329491327796260
-75.546655080875638 -94.550263186079022 -105.026039870227240
-75.636580326408037 -94.347200417686508 -104.723768560082430
-75.724859003734224 -94.145072296773520 -104.421656737439320
-75.809293571778142 -93.946367867285105 -104.117993971731890
-75.888793058423218 -93.752726527956739 -103.812031467875300
-75.963103620834616 -93.564472908623955 -103.504773972475620
-76.032823775899359 -93.379663970284867 -103.198283343291710
-76.099015312691634 -93.195273376291965 -102.893777967959520
-76.161708557868678 -93.007657998178047 -102.591286047652400
-76.220198543106349 -92.815095484111964 -102.290281085717680
-76.274309192157631 -92.618085412277011 -101.989812778117500
-76.325355584104102 -92.418573226026268 -101.688897057217660
-76.374995414244182 -92.217338274027185 -101.386199302700670
-76.424262084521700 -92.015042743392385 -101.081157361847030
-76.472292233101967 -91.813767350589359 -100.773732234310130
-76.516699582085181 -91.616072288272420 -100.464566452764540
-76.555908061469964 -91.424103368833528 -100.153809666240110
-76.590219359744708 -91.236913747364810 -99.841640013533294
-76.621535401256622 -91.050876496097985 -99.529718366816340
-76.653609649511836 -90.862554803611090 -99.219461199266703
-76.690671013044792 -90.670672967329196 -98.910775983369362
-76.735714240206562 -90.475580900967614 -98.603146461962552
-76.789550062497128 -90.278655255788522 -98.296431760241404
-76.852301498666804 -90.081145348239957 -97.990668625328325
-76.921591856013620 -89.883469200478572 -97.685835500384798
-76.995881237945710 -89.685715029067111 -97.381636563161663
-77.074475230147939 -89.489765639197429 -97.077022047571589
-77.157111687799741 -89.296515053480647 -96.771885615567342
-77.245355882791856 -89.105157108739348 -96.466924491243688
-77.342437665319039 -88.913734954864367 -96.163255328488518
-77.449628964742075 -88.721398336382848 -95.861174274430425
-77.565232833009873 -88.528252782350023 -95.560135838831172
-77.686509259969199 -88.334727733653324 -95.260257938648138
-77.811141259618253 -88.141168906034849 -94.961850007819919
-77.937047149332145 -87.946817136422283 -94.665195881010902
-78.061314821346230 -87.748505694693108 -94.370729310350683
-78.182044583755271 -87.543327790092718 -94.079639107365935
-78.298434773569781 -87.329969653628069 -93.792827950813532
-78.409461909881315 -87.107876570859361 -93.509847139057371
-78.514647264875094 -86.878589794123343 -93.229624471797578
-78.613536124804298 -86.644764828550862 -92.950961140310923
-78.706799414257020 -86.408251818305231 -92.673065923867767
-78.796921082620301 -86.171686947944551 -92.394351697409405
-78.884717893107677 -85.938913803773957 -92.112260681263592
-78.969862829634408 -85.713384320856164 -91.824820681853694
-79.051211562769154 -85.497356049664305 -91.531185675232678
-79.126217123810704 -85.292232882853042 -91.231018272429495
-79.191919104575248 -85.097511185657851 -90.924094555384599
-79.246083640512353 -84.912685840107457 -90.610408209616580
-79.288182218402213 -84.737617621863620 -90.290243956383350
-79.316559645149013 -84.570665631901520 -89.964827389256854
-79.330600700979204 -84.408238508264986 -89.636073709860582
-79.332194555618187 -84.246552786750115 -89.305818981996438
-79.324751182061718 -84.081608296522646 -88.976605240698632
-79.311146054890131 -83.910480567732563 -88.650958911153637
-79.290639318968431 -83.733037835007849 -88.329728355746312
-79.263026139615675 -83.550361654640000 -88.013226981812025
-79.228191510665027 -83.362717831456365 -87.701908855995583
-79.186732526031136 -83.170484914743383 -87.396193291975095
-79.139657996465715 -82.974126847171675 -87.095060784873837
-79.088067372229176 -82.775868548834524 -86.795234345230242
-79.032198192816423 -82.580172346097100 -86.493197470835725
-78.969945324203280 -82.390761300440474 -86.186711893557074
-78.898969359867550 -82.209824509788490 -85.873752938800621
-78.818159616553331 -82.038656670155063 -85.553137532552341
-78.726243725510699 -81.878411169671722 -85.224714708610350
-78.622653389034411 -81.730258670230413 -84.888672942336484
-78.507428457026691 -81.593847450223379 -84.546435245657037
-78.382396225787161 -81.468152745240133 -84.200575441104647
-78.249356392581547 -81.350547942732362 -83.853793521723603
-78.109353393971418 -81.238980568696192 -83.508025760488380
-77.963109524666990 -81.131923791261173 -83.164120965841406
-77.811347635537174 -81.028937393013365 -82.821141247966139
-77.654321741954902 -80.929933629043248 -82.478162594877006
-77.491479550224525 -80.834991433959061 -82.134498058345898
-77.321588454027733 -80.743164124721773 -81.790034656818960
-77.142031301252686 -80.652779236264934 -81.445424080698615
-76.950560859193814 -80.563012088960207 -81.100771250351045
-76.747049991267886 -80.473758887732444 -80.755630584139979
-76.533288123602773 -80.384421980253819 -80.409502793599998
-76.312324359752552 -80.293886941589790 -80.062473309940884
-76.087511473710592 -80.200668116989235 -79.714839849713783
-75.860498319410752 -80.102562687177425 -79.367284274403445
-75.632860163257774 -79.997708845866853 -79.020429279455882
-75.407025726534314 -79.884882103697777 -78.674790516820565
-75.184960033049634 -79.764152458246656 -78.330442732425496
-74.969498843371142 -79.637038755187916 -77.986667432158242
-74.761925893599908 -79.506604988713335 -77.642383719825929
-74.563165578420666 -79.375912326696522 -77.297075614179406
-74.374279627524629 -79.246946300703328 -76.950879823307986
-74.194896129340847 -79.120592541093529 -76.603513342472993
-74.023272425062814 -78.997788703561895 -76.254583541864562
-73.857175074339764 -78.879209637691204 -75.904181811857441
-73.695481118214019 -78.764421076439220 -75.553049451143536
-73.538682876211226 -78.652638197799007 -75.202193074342546
-73.389059415216423 -78.542118761333043 -74.852623401911501
-73.248099097758924 -78.431521215003173 -74.504257693153207
-73.116900451829039 -78.319662405447119 -74.157225823073503
-72.996455322145465 -78.206264296953933 -73.811020279059960
-72.887477784332148 -78.091809892665708 -73.465352220097557
-72.790995011337998 -77.976356191536865 -73.120508214242605
-72.707828026692610 -77.860556904232169 -72.776484474748486
-72.638666272891854 -77.744054822743209 -72.433990991296525
-72.583446692552869 -77.624308757900096 -72.094781165160455
-72.541779292696830 -77.498023127726071 -71.760158648194917
-72.513337707310498 -77.363220640058884 -71.430404997921528
-72.498335729055313 -77.220450760431575 -71.104713261244811
-72.497600487822837 -77.071502563491265 -70.780892771142177
-72.511344156107725 -76.917572914454709 -70.457356904657473
-72.537229746580081 -76.760630724052731 -70.133010831581515
-72.573304090587854 -76.602932318311119 -69.806916956051666
-72.618956433998989 -76.445622869678218 -69.478469428547200
-72.672746182732894 -76.288696485433519 -69.148001095252539
-72.734510603210936 -76.131664770296197 -68.816549956085609
-72.802941029045556 -75.973254849900641 -68.485600575040664
-72.876198983450166 -75.812755636572419 -68.156198490172443
-72.952330181605419 -75.650000443610836 -67.828771227131554
-73.031528625741444 -75.484762730959432 -67.503653605369294
-73.115320362611143 -75.315995277459820 -67.181000689642701
-73.205802501743804 -75.143220154206404 -66.861273168948600
-73.303112322130261 -74.966402719654667 -66.544543567161583
-73.405638416021077 -74.786844315100723 -66.229824080822979
-73.511442812846710 -74.606154262314860 -65.916446769742052
-73.620378902768735 -74.425492786309874 -65.605064035416859
-73.734758462238290 -74.244962335907331 -65.296369292234601
-73.857000668754011 -74.064920296026031 -64.989513419762957
-73.988420045369509 -73.886414476688685 -64.683606571034701
-74.129304499676664 -73.711612176799818 -64.377333566321454
-74.278738073369951 -73.541844937905836 -64.069689593047201
-74.435073414355955 -73.377214880051895 -63.759159081713214
-74.596992130720039 -73.216861989664736 -63.445586758151663
-74.762009835723532 -73.060656397457478 -63.129565916431694
-74.928019494018443 -72.909025538210699 -62.811685259044332
-75.092860319265384 -72.760841503761569 -62.493085358600567
-75.253253002854521 -72.614075980042387 -62.174166452711418
-75.406087849189717 -72.467312139232661 -61.855294296373295
-75.550584194235583 -72.320489599340561 -61.536528785446855
-75.688070142941640 -72.174201927646365 -61.217685795579058
-75.819395811930789 -72.028713625406652 -60.897710418505703
-75.946396687597527 -71.884118115462840 -60.576087219882709
-76.070066997892852 -71.740765830133668 -60.252571103320236
-76.190652019186984 -71.597815845766675 -59.927325386078849
-76.308558956262985 -71.453363629734042 -59.601061352303063
-76.425355492512963 -71.306687030873150 -59.274026176972214
-76.541015269920180 -71.160432849231654 -58.944608529559630
-76.655507240530213 -71.017401341505860 -58.611782140842749
-76.769307954605509 -70.878952599701748 -58.275796752279653
-76.882615370545125 -70.745183192797924 -57.937209551138295
-76.995556668996400 -70.614508539723076 -57.597365518737412
-77.108763638680813 -70.484904303973636 -57.257403717621116
-77.222339119922481 -70.355409770028771 -56.918099570216924
-77.334890856647988 -70.225694789121249 -56.579738361513009
-77.444705583732969 -70.095078551724640 -56.242820359842327
-77.551146937499553 -69.964260602968281 -55.907010683173226
-77.653360775351061 -69.835093294411976 -55.571988024648419
-77.750441662032856 -69.709227094876894 -55.237554563954603
-77.843064994201811 -69.587716037688537 -54.903139499691662
-77.931517580286354 -69.470390576673466 -54.567190939980080
-78.016922782054110 -69.358709107791000 -54.227639088734669
-78.100695646293588 -69.252339844381098 -53.883845487692895
-78.184084697055866 -69.151582213122495 -53.535324459653367
-78.268281182060150 -69.056193069625493 -53.182424406008167
-78.355184212287469 -68.964999326714008 -52.825934187151994
-78.445915713203007 -68.877075398100601 -52.466820248782113
-78.540227524050081 -68.790922766292852 -52.106888225279036
-78.636649480212412 -68.705381208218981 -51.747481129254083
-78.732455388079742 -68.617461040321245 -51.389619369945343
-78.825252676636183 -68.525545411107046 -51.034299438347972
-78.912828564357540 -68.431154666530404 -50.681877528482488
-78.994529355383051 -68.337764232976781 -50.330776706643661
-79.070461252786941 -68.248225270571965 -49.978919731189904
-79.141749411451570 -68.164397306275902 -49.625164807364314
-79.209899417791732 -68.087459559307149 -49.269524646588792
-79.275239691406625 -68.016793677984026 -48.912950497424973
-79.338062760351121 -67.951924613071341 -48.555764719835182
-79.398262536486001 -67.891144641852563 -48.197661522929820
-79.454216244493054 -67.832698367105593 -47.837879491642255
-79.505109581680912 -67.774757036556338 -47.476374089768498
-79.550955872205250 -67.716695601808880 -47.113264794194507
-79.592407060414700 -67.658169597752732 -46.749317094237838