ply
format ascii 1.0
element vertex 185
property double x
property double y
property double z
end_header
-84.540395169965947 -97.788086882828708 -107.868378727844740
-84.531023823075415 -97.625995205831714 -107.591262905479650
-84.525100584679151 -97.450175342650866 -107.321042289541880
-84.522243709363750 -97.262121034192305 -107.057705581272120
-84.522559181582423 -97.063624666525186 -106.800526914129360
-84.526442838647611 -96.856857846778198 -106.547665665080560
-84.533219537418475 -96.644535924536882 -106.296875914345490
-84.541981557111981 -96.429702639520968 -106.045563029144470
-84.552013739447503 -96.215984664930772 -105.791570873131010
-84.562893630646457 -96.005951259242224 -105.534154230555960
-84.574245877618381 -95.801761830501491 -105.273201600932740
-84.585844405636990 -95.603679578451292 -105.008957590127480
-84.596799440214639 -95.411106012480218 -104.742164600903660
-84.606497117044370 -95.222675940091818 -104.473193727140540
-84.615813111656152 -95.035866429874432 -104.202911564711470
-84.625299447337852 -94.848335162380266 -103.932405296676680
-84.635450941868172 -94.658486618573917 -103.662732246849230
-84.647100320712582 -94.465143396629855 -103.394342279188070
-84.661192250495134 -94.267910121889329 -103.127125427330130
-84.679881313076095 -94.067585192628712 -102.860108711386690
-84.705645248932569 -93.865979757274630 -102.592148757949150
-84.739892308919281 -93.663751102581742 -102.323271789457370
-84.781672415938502 -93.460246649402393 -102.054987201687620
-84.828432613504404 -93.254873556352322 -101.789099860381700
-84.877521375997219 -93.047654657264829 -101.525656974195020
-84.927220414936158 -92.839440905840917 -101.263642692011360
-84.975783512365467 -92.630851333603559 -101.001944239600280
-85.021934686576685 -92.422493462525580 -100.739282409190780
-85.065698239022424 -92.215082992617738 -100.474685479041640
-85.108318194964468 -92.007784087049515 -100.208496083654860
-85.151052680277616 -91.798586886971236 -99.942184862891310
-85.195024177201063 -91.585601505059316 -99.677116158764449
-85.240582903959734 -91.368489029090327 -99.412987093616664
-85.286960275118474 -91.149080655764806 -99.148684629001096
-85.333137384289230 -90.929578185565390 -98.883248503992348
-85.378283785414325 -90.711846374116249 -98.616061688660253
-85.423345047619478 -90.495595663093482 -98.347746131088229
-85.469679532034050 -90.279843259051873 -98.079380742323934
-85.516758844179293 -90.064441358241851 -97.811868525603359
-85.563676061775524 -89.849535807637096 -97.545780972983877
-85.608787227038789 -89.635414162567713 -97.281347546998234
-85.650222782931564 -89.422799559472907 -97.018678600895399
-85.686190053402527 -89.212366551751785 -96.757692728673675
-85.716250991054892 -89.004775920700396 -96.498098763417346
-85.741406570319256 -88.799435419430836 -96.239321591345004
-85.763153041763573 -88.595848350105086 -95.980918979163192
-85.782935248462891 -88.393611913025708 -95.721797917254847
-85.803210549831277 -88.192635728833537 -95.460619976386255
-85.826579386569449 -87.992357021260375 -95.196590253017220
-85.854064061423756 -87.793442040063894 -94.928935299050323
-85.884039360368135 -87.597612249620440 -94.657189097253436
-85.912987746587447 -87.405608373872738 -94.381998307218865
-85.938247596776250 -87.217553920861320 -94.104518859485765
-85.959406517720552 -87.033974520795425 -93.824945946739746
-85.976815739379077 -86.855363172150362 -93.543743969701126
-85.990133654127959 -86.681784716397985 -93.261373776756074
-85.998628923953035 -86.512514637936775 -92.978288593637416
-85.999870824494820 -86.346352583614774 -92.695102306279637
-85.991272554770234 -86.181435748114509 -92.413391450148907
-85.971559968703531 -86.016364434331692 -92.134580875308785
-85.940508326359577 -85.849998131540985 -91.859127204063455
-85.898011475280171 -85.682187390262825 -91.586025857058431
-85.846211125725816 -85.514316748893521 -91.313793049644744
-85.786580246751313 -85.347252247152710 -91.041662325006371
-85.719438928740260 -85.181192254714986 -90.769190221244898
-85.645374179053292 -85.016757439989803 -90.495782956655802
-85.565421633619351 -84.854504282054677 -90.220981435108200
-85.480729518305452 -84.695622058781041 -89.944558812089440
-85.391738187860838 -84.540388081355388 -89.666654500277104
-85.298415202470053 -84.388098262345878 -89.386774492382187
-85.200662474797767 -84.238298735634018 -89.104462592704152
-85.098814661551401 -84.092452093485178 -88.819075735168212
-84.992988276376792 -83.952014249686769 -88.530985152176569
-84.883273925001717 -83.818340279987908 -88.240969868753865
-84.769600072911814 -83.692160971149107 -87.949751509324173
-84.650516774908311 -83.574148121807681 -87.658291040113653
-84.525351775920427 -83.464259159723085 -87.366549482764228
-84.393393882447782 -83.361651923841038 -87.074213115137113
-84.253487024328336 -83.265295648023837 -86.780803614035577
-84.105560507403965 -83.173638638352330 -86.486260809024571
-83.950475119626191 -83.085462865354060 -86.191121639822029
-83.790126772779175 -83.000391246416783 -85.895740736669111
-83.626368438943999 -82.917923817474403 -85.600022938673916
-83.458315139300566 -82.837015121193076 -85.304453107217228
-83.284740424578303 -82.756380377561740 -85.009483595363278
-83.105082488006531 -82.674677116571601 -84.715255931579620
-82.920120178398435 -82.590609908030615 -84.421604789292530
-82.731751499906366 -82.504020477583609 -84.128262946291528
-82.541503495533377 -82.414810710939292 -83.835150972316086
-82.348913251254260 -82.323378612560731 -83.542084750242907
-82.153329109795592 -82.230392491070745 -83.248847855304291
-81.954813987903663 -82.136614632529472 -82.954851896092848
-81.753769543191950 -82.043906070872012 -82.659214623309467
-81.551658331836563 -81.953176001281491 -82.361663269931626
-81.349411972708964 -81.865927279965916 -82.061697981634637
-81.147383165132680 -81.782802799495144 -81.759008316241705
-80.946724851092597 -81.703797779446447 -81.453896598742375
-80.748493006495949 -81.628549916472494 -81.147242812901766
-80.553927347261606 -81.556910985351408 -80.839088581186246
-80.363752391858810 -81.487535824320958 -80.530350693818534
-80.178163716809323 -81.418275109888540 -80.222001126224072
-79.997102107571607 -81.348054243959410 -79.914922656232918
-79.821023175550764 -81.275856984712135 -79.609792287988640
-79.651825882901846 -81.200224011773599 -79.307230109269767
-79.491056964190818 -81.120385362119123 -79.007341794324262
-79.338122374305897 -81.036452626232744 -78.709031489495686
-79.191406930925325 -80.949398917616918 -78.411185034450881
-79.050507808508058 -80.861048850503551 -78.111902182138110
-78.916024832808972 -80.772452108803989 -77.809647266349145
-78.788041575692262 -80.684265985445293 -77.503912338538584
-78.665893308347137 -80.596838804750462 -77.195114171636931
-78.549342606128619 -80.510125969841894 -76.884446029571635
-78.439898587766223 -80.423930628049419 -76.573641841817960
-78.338794788265901 -80.336943362951047 -76.265336892056126
-78.245916285341835 -80.247359858239136 -75.960811173368811
-78.161218393644603 -80.154112095104992 -75.659300158765703
-78.084990395708871 -80.056501102297304 -75.360203552089317
-78.017275145188989 -79.955303849614140 -75.062890052637528
-77.957696310642447 -79.851403304921874 -74.766721781635141
-77.906063055890144 -79.744608941086454 -74.471009118820120
-77.862071003667893 -79.634773114327373 -74.175323733792780
-77.825493061371816 -79.522057906772233 -73.879061951341583
-77.795567904818725 -79.407415321950566 -73.580950292387584
-77.772299806637633 -79.292027897876238 -73.279908808255342
-77.756195876095248 -79.176517526770127 -72.975663541089403
-77.747234131165456 -79.060911889096076 -72.668661634334001
-77.743545858254720 -78.944191443549698 -72.360318174694854
-77.743965928401920 -78.825458627615731 -72.051428790422548
-77.748155066246568 -78.703946680489082 -71.742390660847207
-77.757652338548468 -78.578390866050100 -71.434190901604197
-77.776034661390085 -78.446598890602630 -71.128467362727179
-77.805743532102923 -78.307005288820577 -70.825716198597974
-77.847778483387657 -78.158673626056427 -70.526257569760617
-77.900737824945182 -78.001790229217377 -70.230435461265301
-77.963184200570112 -77.838304131027741 -69.937402472178448
-78.033684332505757 -77.671364147803700 -69.646044432119382
-78.109926576984961 -77.504153261063138 -69.355499660071928
-78.188320796009251 -77.338550269529904 -69.064817455767781
-78.265791208890164 -77.175295429763850 -68.773582170047277
-78.340360700120613 -77.015353553272902 -68.481864635260862
-78.411142433188601 -76.858749484003582 -68.190257607626222
-78.477496736228858 -76.703956353675963 -67.899917300649619
-78.539145172924961 -76.549306953891559 -67.611134992444278
-78.599366256615511 -76.394168704236506 -67.323680098424319
-78.662346644814377 -76.237908571111845 -67.037321428628942
-78.731900021670654 -76.079750111871732 -66.751957451300385
-78.811098009849161 -75.919831516054174 -66.466857265075490
-78.901406234046178 -75.758764505647378 -66.181109434685155
-79.001524055598807 -75.596668901848673 -65.894072382581925
-79.108906302268323 -75.434277106136818 -65.604712504933730
-79.220407564018856 -75.272043002788180 -65.312474072047976
-79.333357368523806 -75.110749058680213 -65.017114656749442
-79.445867655479262 -74.951655974276960 -64.718152105648727
-79.555724150987942 -74.795907916348213 -64.415403417544852
-79.661973750726574 -74.644566431666377 -64.108678234790005
-79.764866052210550 -74.497450059672985 -63.798021602568170
-79.864390425564366 -74.354412987768541 -63.483926165135159
-79.961367396001023 -74.214435945876716 -63.167940956780782
-80.056873394482054 -74.075792054950213 -62.851978950022911
-80.151052355564104 -73.937825103346157 -62.537147793727215
-80.243639473642574 -73.800357895297481 -62.224184320180612
-80.334435128225323 -73.664061039464755 -61.913806163574733
-80.423969399889288 -73.529412231899087 -61.606511226808884
-80.512350706584058 -73.396168502925164 -61.302971971771626
-80.599293849933972 -73.263603500249857 -61.003668140522002
-80.683966289193989 -73.130687184956912 -60.707866427109792
-80.767470267851493 -72.997026908167072 -60.413443666994723
-80.851214953027011 -72.863018312215132 -60.117312159319241
-80.934830361561254 -72.729521319715275 -59.817190525514377
-81.018912189463478 -72.597288368575533 -59.511825919134331
-81.104282658696036 -72.467278930962067 -59.200568608298525
-81.192279733766753 -72.340080919706750 -58.883920761553341
-81.283082583683523 -72.215549312905324 -58.563721458603197
-81.375449757433856 -72.092818186140946 -58.242572220099525
-81.468846390918316 -71.971218390213096 -57.922730653576394
-81.561905890950712 -71.850871271709053 -57.605306608576001
-81.653222722604411 -71.731772349390837 -57.291085265220509
-81.742622627327719 -71.614375304995178 -56.979922748944141
-81.829426354646401 -71.499147262085714 -56.671488764935702
-81.914147793484631 -71.387042619915945 -56.364636720261601
-81.997321892081771 -71.278902695847407 -56.058521976528866
-82.079158452374401 -71.174522678854942 -55.752822899378550
-82.159942440561224 -71.072057628477253 -55.447369620149964
-82.239479389837058 -70.969642335672759 -55.141534181022820
-82.317041121389735 -70.865725559526922 -54.835306724518531
