# This PCD file was generated using the MATLAB® pcwrite function
# from Computer Vision System Toolbox®.
# .PCD v.7 - Point Cloud Data file format
VERSION .7
FIELDS x y z
SIZE 8 8 8
TYPE F F F
COUNT 1 1 1
WIDTH 185
HEIGHT 1
VIEWPOINT 0 0 0 1 0 0 0
POINTS 185
DATA ascii
-0.075167367714505 -0.095493087833304 -0.106572428628645
-0.075220932455363 -0.095323514454038 -0.106256095176993
-0.075290196971283 -0.095141487437980 -0.105943620115989
-0.075370431269280 -0.094949903623005 -0.105635083518614
-0.075456958864261 -0.094751948021238 -0.105329491327796
-0.075546655080876 -0.094550263186079 -0.105026039870227
-0.075636580326408 -0.094347200417687 -0.104723768560082
-0.075724859003734 -0.094145072296774 -0.104421656737439
-0.075809293571778 -0.093946367867285 -0.104117993971732
-0.075888793058423 -0.093752726527957 -0.103812031467875
-0.075963103620835 -0.093564472908624 -0.103504773972476
-0.076032823775899 -0.093379663970285 -0.103198283343292
-0.076099015312692 -0.093195273376292 -0.102893777967960
-0.076161708557869 -0.093007657998178 -0.102591286047652
-0.076220198543106 -0.092815095484112 -0.102290281085718
-0.076274309192158 -0.092618085412277 -0.101989812778118
-0.076325355584104 -0.092418573226026 -0.101688897057218
-0.076374995414244 -0.092217338274027 -0.101386199302701
-0.076424262084522 -0.092015042743392 -0.101081157361847
-0.076472292233102 -0.091813767350589 -0.100773732234310
-0.076516699582085 -0.091616072288272 -0.100464566452765
-0.076555908061470 -0.091424103368834 -0.100153809666240
-0.076590219359745 -0.091236913747365 -0.099841640013533
-0.076621535401257 -0.091050876496098 -0.099529718366816
-0.076653609649512 -0.090862554803611 -0.099219461199267
-0.076690671013045 -0.090670672967329 -0.098910775983369
-0.076735714240207 -0.090475580900968 -0.098603146461963
-0.076789550062497 -0.090278655255789 -0.098296431760241
-0.076852301498667 -0.090081145348240 -0.097990668625328
-0.076921591856014 -0.089883469200479 -0.097685835500385
-0.076995881237946 -0.089685715029067 -0.097381636563162
-0.077074475230148 -0.089489765639197 -0.097077022047572
-0.077157111687800 -0.089296515053481 -0.096771885615567
-0.077245355882792 -0.089105157108739 -0.096466924491244
-0.077342437665319 -0.088913734954864 -0.096163255328489
-0.077449628964742 -0.088721398336383 -0.095861174274430
-0.077565232833010 -0.088528252782350 -0.095560135838831
-0.077686509259969 -0.088334727733653 -0.095260257938648
-0.077811141259618 -0.088141168906035 -0.094961850007820
-0.077937047149332 -0.087946817136422 -0.094665195881011
-0.078061314821346 -0.087748505694693 -0.094370729310351
-0.078182044583755 -0.087543327790093 -0.094079639107366
-0.078298434773570 -0.087329969653628 -0.093792827950814
-0.078409461909881 -0.087107876570859 -0.093509847139057
-0.078514647264875 -0.086878589794123 -0.093229624471798
-0.078613536124804 -0.086644764828551 -0.092950961140311
-0.078706799414257 -0.086408251818305 -0.092673065923868
-0.078796921082620 -0.086171686947945 -0.092394351697409
-0.078884717893108 -0.085938913803774 -0.092112260681264
-0.078969862829634 -0.085713384320856 -0.091824820681854
-0.079051211562769 -0.085497356049664 -0.091531185675233
-0.079126217123811 -0.085292232882853 -0.091231018272429
-0.079191919104575 -0.085097511185658 -0.090924094555385
-0.079246083640512 -0.084912685840107 -0.090610408209617
-0.079288182218402 -0.084737617621864 -0.090290243956383
-0.079316559645149 -0.084570665631902 -0.089964827389257
-0.079330600700979 -0.084408238508265 -0.089636073709861
-0.079332194555618 -0.084246552786750 -0.089305818981996
-0.079324751182062 -0.084081608296523 -0.088976605240699
-0.079311146054890 -0.083910480567733 -0.088650958911154
-0.079290639318968 -0.083733037835008 -0.088329728355746
-0.079263026139616 -0.083550361654640 -0.088013226981812
-0.079228191510665 -0.083362717831456 -0.087701908855996
-0.079186732526031 -0.083170484914743 -0.087396193291975
-0.079139657996466 -0.082974126847172 -0.087095060784874
-0.079088067372229 -0.082775868548835 -0.086795234345230
-0.079032198192816 -0.082580172346097 -0.086493197470836
-0.078969945324203 -0.082390761300440 -0.086186711893557
-0.078898969359868 -0.082209824509788 -0.085873752938801
-0.078818159616553 -0.082038656670155 -0.085553137532552
-0.078726243725511 -0.081878411169672 -0.085224714708610
-0.078622653389034 -0.081730258670230 -0.084888672942336
-0.078507428457027 -0.081593847450223 -0.084546435245657
-0.078382396225787 -0.081468152745240 -0.084200575441105
-0.078249356392582 -0.081350547942732 -0.083853793521724
-0.078109353393971 -0.081238980568696 -0.083508025760488
-0.077963109524667 -0.081131923791261 -0.083164120965841
-0.077811347635537 -0.081028937393013 -0.082821141247966
-0.077654321741955 -0.080929933629043 -0.082478162594877
-0.077491479550225 -0.080834991433959 -0.082134498058346
-0.077321588454028 -0.080743164124722 -0.081790034656819
-0.077142031301253 -0.080652779236265 -0.081445424080699
-0.076950560859194 -0.080563012088960 -0.081100771250351
-0.076747049991268 -0.080473758887732 -0.080755630584140
-0.076533288123603 -0.080384421980254 -0.080409502793600
-0.076312324359753 -0.080293886941590 -0.080062473309941
-0.076087511473711 -0.080200668116989 -0.079714839849714
-0.075860498319411 -0.080102562687177 -0.079367284274403
-0.075632860163258 -0.079997708845867 -0.079020429279456
-0.075407025726534 -0.079884882103698 -0.078674790516821
-0.075184960033050 -0.079764152458247 -0.078330442732425
-0.074969498843371 -0.079637038755188 -0.077986667432158
-0.074761925893600 -0.079506604988713 -0.077642383719826
-0.074563165578421 -0.079375912326697 -0.077297075614179
-0.074374279627525 -0.079246946300703 -0.076950879823308
-0.074194896129341 -0.079120592541094 -0.076603513342473
-0.074023272425063 -0.078997788703562 -0.076254583541865
-0.073857175074340 -0.078879209637691 -0.075904181811857
-0.073695481118214 -0.078764421076439 -0.075553049451144
-0.073538682876211 -0.078652638197799 -0.075202193074343
-0.073389059415216 -0.078542118761333 -0.074852623401912
-0.073248099097759 -0.078431521215003 -0.074504257693153
-0.073116900451829 -0.078319662405447 -0.074157225823074
-0.072996455322145 -0.078206264296954 -0.073811020279060
-0.072887477784332 -0.078091809892666 -0.073465352220098
-0.072790995011338 -0.077976356191537 -0.073120508214243
-0.072707828026693 -0.077860556904232 -0.072776484474748
-0.072638666272892 -0.077744054822743 -0.072433990991297
-0.072583446692553 -0.077624308757900 -0.072094781165160
-0.072541779292697 -0.077498023127726 -0.071760158648195
-0.072513337707310 -0.077363220640059 -0.071430404997922
-0.072498335729055 -0.077220450760432 -0.071104713261245
-0.072497600487823 -0.077071502563491 -0.070780892771142
-0.072511344156108 -0.076917572914455 -0.070457356904657
-0.072537229746580 -0.076760630724053 -0.070133010831582
-0.072573304090588 -0.076602932318311 -0.069806916956052
-0.072618956433999 -0.076445622869678 -0.069478469428547
-0.072672746182733 -0.076288696485434 -0.069148001095253
-0.072734510603211 -0.076131664770296 -0.068816549956086
-0.072802941029046 -0.075973254849901 -0.068485600575041
-0.072876198983450 -0.075812755636572 -0.068156198490172
-0.072952330181605 -0.075650000443611 -0.067828771227132
-0.073031528625741 -0.075484762730959 -0.067503653605369
-0.073115320362611 -0.075315995277460 -0.067181000689643
-0.073205802501744 -0.075143220154206 -0.066861273168949
-0.073303112322130 -0.074966402719655 -0.066544543567162
-0.073405638416021 -0.074786844315101 -0.066229824080823
-0.073511442812847 -0.074606154262315 -0.065916446769742
-0.073620378902769 -0.074425492786310 -0.065605064035417
-0.073734758462238 -0.074244962335907 -0.065296369292235
-0.073857000668754 -0.074064920296026 -0.064989513419763
-0.073988420045370 -0.073886414476689 -0.064683606571035
-0.074129304499677 -0.073711612176800 -0.064377333566321
-0.074278738073370 -0.073541844937906 -0.064069689593047
-0.074435073414356 -0.073377214880052 -0.063759159081713
-0.074596992130720 -0.073216861989665 -0.063445586758152
-0.074762009835724 -0.073060656397457 -0.063129565916432
-0.074928019494018 -0.072909025538211 -0.062811685259044
-0.075092860319265 -0.072760841503762 -0.062493085358601
-0.075253253002855 -0.072614075980042 -0.062174166452711
-0.075406087849190 -0.072467312139233 -0.061855294296373
-0.075550584194236 -0.072320489599341 -0.061536528785447
-0.075688070142942 -0.072174201927646 -0.061217685795579
-0.075819395811931 -0.072028713625407 -0.060897710418506
-0.075946396687598 -0.071884118115463 -0.060576087219883
-0.076070066997893 -0.071740765830134 -0.060252571103320
-0.076190652019187 -0.071597815845767 -0.059927325386079
-0.076308558956263 -0.071453363629734 -0.059601061352303
-0.076425355492513 -0.071306687030873 -0.059274026176972
-0.076541015269920 -0.071160432849232 -0.058944608529560
-0.076655507240530 -0.071017401341506 -0.058611782140843
-0.076769307954606 -0.070878952599702 -0.058275796752280
-0.076882615370545 -0.070745183192798 -0.057937209551138
-0.076995556668996 -0.070614508539723 -0.057597365518737
-0.077108763638681 -0.070484904303974 -0.057257403717621
-0.077222339119922 -0.070355409770029 -0.056918099570217
-0.077334890856648 -0.070225694789121 -0.056579738361513
-0.077444705583733 -0.070095078551725 -0.056242820359842
-0.077551146937500 -0.069964260602968 -0.055907010683173
-0.077653360775351 -0.069835093294412 -0.055571988024648
-0.077750441662033 -0.069709227094877 -0.055237554563955
-0.077843064994202 -0.069587716037689 -0.054903139499692
-0.077931517580286 -0.069470390576673 -0.054567190939980
-0.078016922782054 -0.069358709107791 -0.054227639088735
-0.078100695646294 -0.069252339844381 -0.053883845487693
-0.078184084697056 -0.069151582213122 -0.053535324459653
-0.078268281182060 -0.069056193069626 -0.053182424406008
-0.078355184212287 -0.068964999326714 -0.052825934187152
-0.078445915713203 -0.068877075398101 -0.052466820248782
-0.078540227524050 -0.068790922766293 -0.052106888225279
-0.078636649480212 -0.068705381208219 -0.051747481129254
-0.078732455388080 -0.068617461040321 -0.051389619369945
-0.078825252676636 -0.068525545411107 -0.051034299438348
-0.078912828564358 -0.068431154666530 -0.050681877528483
-0.078994529355383 -0.068337764232977 -0.050330776706644
-0.079070461252787 -0.068248225270572 -0.049978919731190
-0.079141749411452 -0.068164397306276 -0.049625164807364
-0.079209899417792 -0.068087459559307 -0.049269524646589
-0.079275239691407 -0.068016793677984 -0.048912950497425
-0.079338062760351 -0.067951924613071 -0.048555764719835
-0.079398262536486 -0.067891144641853 -0.048197661522930
-0.079454216244493 -0.067832698367106 -0.047837879491642
-0.079505109581681 -0.067774757036556 -0.047476374089769
-0.079550955872205 -0.067716695601809 -0.047113264794195
-0.079592407060415 -0.067658169597753 -0.046749317094238