ply
format ascii 1.0
element vertex 184
property double x
property double y
property double z
end_header
-0.079406458889485 -0.093555296942037 -0.111732343480298
-0.079358410531988 -0.093364835133306 -0.111462095637538
-0.079314834803795 -0.093172302928697 -0.111192410138672
-0.079276751093948 -0.092984086866061 -0.110919986870199
-0.079242884627855 -0.092801278426268 -0.110644212945092
-0.079181894401135 -0.092446286594044 -0.110085384372964
-0.079153874595602 -0.092273726292172 -0.109803596232942
-0.079125795294036 -0.092101755576814 -0.109522650853755
-0.079097813663329 -0.091930769046268 -0.109243264587320
-0.079069953316812 -0.091760468159917 -0.108965005660997
-0.079041542441397 -0.091590808948194 -0.108687288350046
-0.079011819642451 -0.091420879934244 -0.108410790471395
-0.078980604812209 -0.091250995826333 -0.108135710803522
-0.078948667014175 -0.091081807769228 -0.107861108486879
-0.078916578096686 -0.090912879889252 -0.107586775557415
-0.078884324125355 -0.090743770692818 -0.107312048442895
-0.078853705937630 -0.090576420042191 -0.107035617347357
-0.078824726793088 -0.090407927685841 -0.106758460435207
-0.078797876553413 -0.090237810958075 -0.106481193926987
-0.078774185839656 -0.090066229311715 -0.106204497615220
-0.078754846085197 -0.089894333216230 -0.105927998873154
-0.078740012565822 -0.089720512080369 -0.105651722633623
-0.078730112923697 -0.089544279148703 -0.105375506970850
-0.078723962325880 -0.089366363306419 -0.105099565613046
-0.078720500714751 -0.089187672606535 -0.104824480011661
-0.078718421865839 -0.089008602303508 -0.104550668220199
-0.078716647065324 -0.088829795404048 -0.104277914254885
-0.078713804436548 -0.088651511039657 -0.104005146932192
-0.078710997074388 -0.088472831771874 -0.103731806816700
-0.078710735239118 -0.088292361912002 -0.103457671349064
-0.078716108650631 -0.088110297534651 -0.103181677838708
-0.078728971515905 -0.087924771772090 -0.102903910059356
-0.078750579231236 -0.087733356514284 -0.102625273679344
-0.078781805524031 -0.087538532053999 -0.102345523681561
-0.078821612520576 -0.087340130209540 -0.102065822272253
-0.078867775259715 -0.087138739960553 -0.101786563090238
-0.078918509237687 -0.086935228888511 -0.101507666815468
-0.078971964091312 -0.086730827905820 -0.101229572034158
-0.079026184064987 -0.086526863703301 -0.100952782665133
-0.079082948566997 -0.086329111836421 -0.100675420214109
-0.079141805682319 -0.086134227255663 -0.100399059782482
-0.079202214097667 -0.085939567588127 -0.100124188441550
-0.079263440989071 -0.085744983398692 -0.099850032085804
-0.079325472117825 -0.085553955761986 -0.099575163926946
-0.079387392590955 -0.085365000247677 -0.099300721484526
-0.079449018244615 -0.085176505359439 -0.099026845054248
-0.079511860266939 -0.084990293514939 -0.098752593935810
-0.079575485605022 -0.084805895057366 -0.098478538027448
-0.079638842623306 -0.084622078376332 -0.098205296814151
-0.079702779792480 -0.084438453547660 -0.097932818455956
-0.079770741317500 -0.084258769607652 -0.097658362895775
-0.079845790670005 -0.084089647017006 -0.097378583243315
-0.079924312520763 -0.083919176855415 -0.097098263003503
-0.080005120991384 -0.083747589424908 -0.096817146529707
-0.080086202921763 -0.083575357303443 -0.096534956125363
-0.080165913398989 -0.083402810646450 -0.096251357691323
-0.080242594217682 -0.083230358408045 -0.095966160218717
-0.080315464983469 -0.083060911279878 -0.095678762927781
-0.080382851669161 -0.082895495109006 -0.095389770269306
-0.080443642096257 -0.082732219876828 -0.095101080706272
-0.080496977188528 -0.082571290703487 -0.094812586907287
-0.080544560097011 -0.082422825032522 -0.094519344969767
-0.080583583541983 -0.082280429645697 -0.094223343605386
-0.080613177731419 -0.082139322175173 -0.093926502082585
-0.080635219294183 -0.081999419167314 -0.093629365320594
-0.080651328958248 -0.081860845372011 -0.093332833978715
-0.080662072386358 -0.081724137543742 -0.093037782870220
-0.080668132928469 -0.081591126096217 -0.092744173828195
-0.080668216992366 -0.081460235153160 -0.092452956979631
-0.080660226750360 -0.081331911404813 -0.092164309737463
-0.080640933980315 -0.081206243548079 -0.091877172952063
-0.080608467819881 -0.081083067870804 -0.091590550088141
-0.080562703414130 -0.080958662253514 -0.091305352401161
-0.080505788336105 -0.080835980347464 -0.091020115621461
-0.080438866140173 -0.080714461233072 -0.090734010965804
-0.080362982437461 -0.080593596077012 -0.090446289402936
-0.080279045688617 -0.080473145361947 -0.090156547059102
-0.080188426375710 -0.080352950502963 -0.089864654361071
-0.080091853310144 -0.080232722251651 -0.089570673358996
-0.079989540309284 -0.080112503220402 -0.089274769050941
-0.079880701820639 -0.079992622961283 -0.088977391671372
-0.079761595726739 -0.079867082829183 -0.088681606288970
-0.079633204858560 -0.079741194372134 -0.088385973477252
-0.079495787513820 -0.079616435827426 -0.088090251372893
-0.079348890042528 -0.079492946289358 -0.087794606157734
-0.079192291947630 -0.079370692176064 -0.087498908783657
-0.079026338879936 -0.079249613613458 -0.087203128235668
-0.078851601564926 -0.079128579115591 -0.086907693662672
-0.078666346686268 -0.079000264917434 -0.086615529950610
-0.078478043928915 -0.078891705146018 -0.086316176387317
-0.078282534997556 -0.078785344775058 -0.086017457393658
-0.078081530052012 -0.078681009671661 -0.085719884238796
-0.077875948467740 -0.078578634067158 -0.085423784763345
-0.077665442900449 -0.078478076213430 -0.085128718098929
-0.077448052731537 -0.078373411176180 -0.084836901282947
-0.077224803851690 -0.078269387799520 -0.084546483785977
-0.076995684543929 -0.078167650649905 -0.084257626996214
-0.076761614062085 -0.078068532794947 -0.083971352264832
-0.076529430302322 -0.077988956312210 -0.083680675891575
-0.076297519765767 -0.077916102410798 -0.083389103312719
-0.076066090932256 -0.077843053217251 -0.083097502684206
-0.075836285272904 -0.077768787824947 -0.082804787176938
-0.075609340436896 -0.077691748191591 -0.082510655722217
-0.075386613841237 -0.077611331119568 -0.082214983450433
-0.075169202692947 -0.077528055846874 -0.081917749465939
-0.074958022132653 -0.077441666240054 -0.081619110534405
-0.074758445664572 -0.077366056166300 -0.081313584201357
-0.074568397121913 -0.077290478596308 -0.081005703381163
-0.074386577998308 -0.077210930827372 -0.080697833908772
-0.074212537144951 -0.077128039593086 -0.080390727510016
-0.074046045556892 -0.077041978262350 -0.080084499527037
-0.073886939342092 -0.076953023392448 -0.079779512939300
-0.073735738566634 -0.076863754480869 -0.079475466427204
-0.073593182467972 -0.076771900080394 -0.079172951482974
-0.073460078301611 -0.076676212582844 -0.078871852955073
-0.073335689012221 -0.076576762674999 -0.078571631682289
-0.073218000028207 -0.076474082454861 -0.078271450610182
-0.073106302085237 -0.076368420867647 -0.077970984672739
-0.073002632303556 -0.076265416392785 -0.077668109403425
-0.072906703854418 -0.076160248537001 -0.077364917468789
-0.072820747974912 -0.076053769983569 -0.077061143317481
-0.072744021305710 -0.075943306945185 -0.076757865197478
-0.072676633850947 -0.075827824875023 -0.076455441367078
-0.072619234782603 -0.075707138675032 -0.076154251058751
-0.072571183519949 -0.075581506056486 -0.075854066654242
-0.072531735148369 -0.075451216193640 -0.075554602933660
-0.072500946248515 -0.075316389019756 -0.075256158683012
-0.072479016093164 -0.075175786826593 -0.074960211858728
-0.072467897015381 -0.075030324047375 -0.074667505617214
-0.072468554835726 -0.074881666196763 -0.074377903716134
-0.072479655700307 -0.074729533049385 -0.074091661739314
-0.072499922123203 -0.074577270978562 -0.073806345394486
-0.072527104775340 -0.074423510957297 -0.073521357844311
-0.072560143532584 -0.074266599113146 -0.073236341121987
-0.072600670271400 -0.074105627746547 -0.072951226895206
-0.072649243253722 -0.073940487441224 -0.072666403528370
-0.072705545381489 -0.073771498168807 -0.072382178287013
-0.072769322893596 -0.073599031710331 -0.072098480488461
-0.072839683963493 -0.073423267940989 -0.071815152784791
-0.072917375837553 -0.073250318191003 -0.071529240340164
-0.073001903738488 -0.073077206545098 -0.071240913299897
-0.073092185844825 -0.072900599862567 -0.070950751290669
-0.073186574121171 -0.072721031750630 -0.070658276636774
-0.073283052742192 -0.072539342848475 -0.070363308476687
-0.073380575347075 -0.072356612120269 -0.070065944573344
-0.073478999473109 -0.072173470850144 -0.069766515096755
-0.073578903459313 -0.071989107795198 -0.069465904620842
-0.073681591529547 -0.071803461851717 -0.069165274326533
-0.073789323761948 -0.071623883121921 -0.068863471183150
-0.073900519566533 -0.071448035276435 -0.068562544063433
-0.074012745576044 -0.071273159459309 -0.068264728538122
-0.074124780722573 -0.071099690149541 -0.067969907495148
-0.074235708122987 -0.070927909139227 -0.067677684774433
-0.074345150424602 -0.070757420336080 -0.067387087033184
-0.074453283191113 -0.070587839944545 -0.067097397710605
-0.074560211647809 -0.070419052076607 -0.066808446440235
-0.074668751832445 -0.070259521285940 -0.066516931534927
-0.074776292674545 -0.070101658211559 -0.066226378660110
-0.074882743042153 -0.069944551611865 -0.065936751681420
-0.074987789821091 -0.069787600059993 -0.065647371251339
-0.075090412599193 -0.069630867603158 -0.065357573004470
-0.075189540155353 -0.069474597656413 -0.065066054401330
-0.075284456669988 -0.069321035466390 -0.064771087959518
-0.075375258571890 -0.069172478492972 -0.064471534029733
-0.075460291649781 -0.069024730891502 -0.064169560017152
-0.075538973217888 -0.068878231467317 -0.063865809126274
-0.075610424419326 -0.068733277597749 -0.063560345417833
-0.075675784352792 -0.068592089724063 -0.063251662652792
-0.075734836783380 -0.068452353310123 -0.062940702266993
-0.075787965981367 -0.068313869679773 -0.062628289789863
-0.075836832246970 -0.068176324346356 -0.062314926037877
-0.075883010145159 -0.068039637306149 -0.062001644130298
-0.075926877995472 -0.067904178637004 -0.061689687941473
-0.075967726680204 -0.067769140518053 -0.061380367576788
-0.076005387531606 -0.067636871037719 -0.061072853083676
-0.076039773538608 -0.067509274567942 -0.060766515414871
-0.076071063478190 -0.067383444398509 -0.060462431437933
-0.076100524113030 -0.067259182950581 -0.060160280023305
-0.076129867761813 -0.067139455327230 -0.059859287922106
-0.076158459845570 -0.067020767175047 -0.059560622177818
-0.076185901130408 -0.066902804079963 -0.059263217358602
-0.076212062619188 -0.066785184194553 -0.058965984994566
-0.076235597751441 -0.066668345875251 -0.058668228410328
-0.076254506970513 -0.066552436968184 -0.058369909756646
