ply
format ascii 1.0
element vertex 185
property double x
property double y
property double z
end_header
-0.084540395169966 -0.097788086882829 -0.107868378727845
-0.084531023823075 -0.097625995205832 -0.107591262905480
-0.084525100584679 -0.097450175342651 -0.107321042289542
-0.084522243709364 -0.097262121034192 -0.107057705581272
-0.084522559181582 -0.097063624666525 -0.106800526914129
-0.084526442838648 -0.096856857846778 -0.106547665665081
-0.084533219537418 -0.096644535924537 -0.106296875914346
-0.084541981557112 -0.096429702639521 -0.106045563029144
-0.084552013739447 -0.096215984664931 -0.105791570873131
-0.084562893630646 -0.096005951259242 -0.105534154230556
-0.084574245877618 -0.095801761830501 -0.105273201600933
-0.084585844405637 -0.095603679578451 -0.105008957590128
-0.084596799440215 -0.095411106012480 -0.104742164600904
-0.084606497117044 -0.095222675940092 -0.104473193727141
-0.084615813111656 -0.095035866429874 -0.104202911564711
-0.084625299447338 -0.094848335162380 -0.103932405296677
-0.084635450941868 -0.094658486618574 -0.103662732246849
-0.084647100320713 -0.094465143396630 -0.103394342279188
-0.084661192250495 -0.094267910121889 -0.103127125427330
-0.084679881313076 -0.094067585192629 -0.102860108711387
-0.084705645248933 -0.093865979757275 -0.102592148757949
-0.084739892308919 -0.093663751102582 -0.102323271789457
-0.084781672415939 -0.093460246649402 -0.102054987201688
-0.084828432613504 -0.093254873556352 -0.101789099860382
-0.084877521375997 -0.093047654657265 -0.101525656974195
-0.084927220414936 -0.092839440905841 -0.101263642692011
-0.084975783512365 -0.092630851333604 -0.101001944239600
-0.085021934686577 -0.092422493462526 -0.100739282409191
-0.085065698239022 -0.092215082992618 -0.100474685479042
-0.085108318194964 -0.092007784087050 -0.100208496083655
-0.085151052680278 -0.091798586886971 -0.099942184862891
-0.085195024177201 -0.091585601505059 -0.099677116158764
-0.085240582903960 -0.091368489029090 -0.099412987093617
-0.085286960275118 -0.091149080655765 -0.099148684629001
-0.085333137384289 -0.090929578185565 -0.098883248503992
-0.085378283785414 -0.090711846374116 -0.098616061688660
-0.085423345047619 -0.090495595663093 -0.098347746131088
-0.085469679532034 -0.090279843259052 -0.098079380742324
-0.085516758844179 -0.090064441358242 -0.097811868525603
-0.085563676061776 -0.089849535807637 -0.097545780972984
-0.085608787227039 -0.089635414162568 -0.097281347546998
-0.085650222782932 -0.089422799559473 -0.097018678600895
-0.085686190053403 -0.089212366551752 -0.096757692728674
-0.085716250991055 -0.089004775920700 -0.096498098763417
-0.085741406570319 -0.088799435419431 -0.096239321591345
-0.085763153041764 -0.088595848350105 -0.095980918979163
-0.085782935248463 -0.088393611913026 -0.095721797917255
-0.085803210549831 -0.088192635728834 -0.095460619976386
-0.085826579386569 -0.087992357021260 -0.095196590253017
-0.085854064061424 -0.087793442040064 -0.094928935299050
-0.085884039360368 -0.087597612249620 -0.094657189097253
-0.085912987746587 -0.087405608373873 -0.094381998307219
-0.085938247596776 -0.087217553920861 -0.094104518859486
-0.085959406517721 -0.087033974520795 -0.093824945946740
-0.085976815739379 -0.086855363172150 -0.093543743969701
-0.085990133654128 -0.086681784716398 -0.093261373776756
-0.085998628923953 -0.086512514637937 -0.092978288593637
-0.085999870824495 -0.086346352583615 -0.092695102306280
-0.085991272554770 -0.086181435748115 -0.092413391450149
-0.085971559968704 -0.086016364434332 -0.092134580875309
-0.085940508326360 -0.085849998131541 -0.091859127204063
-0.085898011475280 -0.085682187390263 -0.091586025857058
-0.085846211125726 -0.085514316748894 -0.091313793049645
-0.085786580246751 -0.085347252247153 -0.091041662325006
-0.085719438928740 -0.085181192254715 -0.090769190221245
-0.085645374179053 -0.085016757439990 -0.090495782956656
-0.085565421633619 -0.084854504282055 -0.090220981435108
-0.085480729518305 -0.084695622058781 -0.089944558812089
-0.085391738187861 -0.084540388081355 -0.089666654500277
-0.085298415202470 -0.084388098262346 -0.089386774492382
-0.085200662474798 -0.084238298735634 -0.089104462592704
-0.085098814661551 -0.084092452093485 -0.088819075735168
-0.084992988276377 -0.083952014249687 -0.088530985152177
-0.084883273925002 -0.083818340279988 -0.088240969868754
-0.084769600072912 -0.083692160971149 -0.087949751509324
-0.084650516774908 -0.083574148121808 -0.087658291040114
-0.084525351775920 -0.083464259159723 -0.087366549482764
-0.084393393882448 -0.083361651923841 -0.087074213115137
-0.084253487024328 -0.083265295648024 -0.086780803614036
-0.084105560507404 -0.083173638638352 -0.086486260809025
-0.083950475119626 -0.083085462865354 -0.086191121639822
-0.083790126772779 -0.083000391246417 -0.085895740736669
-0.083626368438944 -0.082917923817474 -0.085600022938674
-0.083458315139301 -0.082837015121193 -0.085304453107217
-0.083284740424578 -0.082756380377562 -0.085009483595363
-0.083105082488007 -0.082674677116572 -0.084715255931580
-0.082920120178398 -0.082590609908031 -0.084421604789293
-0.082731751499906 -0.082504020477584 -0.084128262946292
-0.082541503495533 -0.082414810710939 -0.083835150972316
-0.082348913251254 -0.082323378612561 -0.083542084750243
-0.082153329109796 -0.082230392491071 -0.083248847855304
-0.081954813987904 -0.082136614632529 -0.082954851896093
-0.081753769543192 -0.082043906070872 -0.082659214623309
-0.081551658331837 -0.081953176001282 -0.082361663269932
-0.081349411972709 -0.081865927279966 -0.082061697981635
-0.081147383165133 -0.081782802799495 -0.081759008316242
-0.080946724851093 -0.081703797779446 -0.081453896598742
-0.080748493006496 -0.081628549916472 -0.081147242812902
-0.080553927347262 -0.081556910985351 -0.080839088581186
-0.080363752391859 -0.081487535824321 -0.080530350693819
-0.080178163716809 -0.081418275109889 -0.080222001126224
-0.079997102107572 -0.081348054243959 -0.079914922656233
-0.079821023175551 -0.081275856984712 -0.079609792287989
-0.079651825882902 -0.081200224011774 -0.079307230109270
-0.079491056964191 -0.081120385362119 -0.079007341794324
-0.079338122374306 -0.081036452626233 -0.078709031489496
-0.079191406930925 -0.080949398917617 -0.078411185034451
-0.079050507808508 -0.080861048850504 -0.078111902182138
-0.078916024832809 -0.080772452108804 -0.077809647266349
-0.078788041575692 -0.080684265985445 -0.077503912338539
-0.078665893308347 -0.080596838804750 -0.077195114171637
-0.078549342606129 -0.080510125969842 -0.076884446029572
-0.078439898587766 -0.080423930628049 -0.076573641841818
-0.078338794788266 -0.080336943362951 -0.076265336892056
-0.078245916285342 -0.080247359858239 -0.075960811173369
-0.078161218393645 -0.080154112095105 -0.075659300158766
-0.078084990395709 -0.080056501102297 -0.075360203552089
-0.078017275145189 -0.079955303849614 -0.075062890052638
-0.077957696310642 -0.079851403304922 -0.074766721781635
-0.077906063055890 -0.079744608941086 -0.074471009118820
-0.077862071003668 -0.079634773114327 -0.074175323733793
-0.077825493061372 -0.079522057906772 -0.073879061951342
-0.077795567904819 -0.079407415321951 -0.073580950292388
-0.077772299806638 -0.079292027897876 -0.073279908808255
-0.077756195876095 -0.079176517526770 -0.072975663541089
-0.077747234131165 -0.079060911889096 -0.072668661634334
-0.077743545858255 -0.078944191443550 -0.072360318174695
-0.077743965928402 -0.078825458627616 -0.072051428790423
-0.077748155066247 -0.078703946680489 -0.071742390660847
-0.077757652338548 -0.078578390866050 -0.071434190901604
-0.077776034661390 -0.078446598890603 -0.071128467362727
-0.077805743532103 -0.078307005288821 -0.070825716198598
-0.077847778483388 -0.078158673626056 -0.070526257569761
-0.077900737824945 -0.078001790229217 -0.070230435461265
-0.077963184200570 -0.077838304131028 -0.069937402472178
-0.078033684332506 -0.077671364147804 -0.069646044432119
-0.078109926576985 -0.077504153261063 -0.069355499660072
-0.078188320796009 -0.077338550269530 -0.069064817455768
-0.078265791208890 -0.077175295429764 -0.068773582170047
-0.078340360700121 -0.077015353553273 -0.068481864635261
-0.078411142433189 -0.076858749484004 -0.068190257607626
-0.078477496736229 -0.076703956353676 -0.067899917300650
-0.078539145172925 -0.076549306953892 -0.067611134992444
-0.078599366256616 -0.076394168704237 -0.067323680098424
-0.078662346644814 -0.076237908571112 -0.067037321428629
-0.078731900021671 -0.076079750111872 -0.066751957451300
-0.078811098009849 -0.075919831516054 -0.066466857265076
-0.078901406234046 -0.075758764505647 -0.066181109434685
-0.079001524055599 -0.075596668901849 -0.065894072382582
-0.079108906302268 -0.075434277106137 -0.065604712504934
-0.079220407564019 -0.075272043002788 -0.065312474072048
-0.079333357368524 -0.075110749058680 -0.065017114656749
-0.079445867655479 -0.074951655974277 -0.064718152105649
-0.079555724150988 -0.074795907916348 -0.064415403417545
-0.079661973750727 -0.074644566431666 -0.064108678234790
-0.079764866052211 -0.074497450059673 -0.063798021602568
-0.079864390425564 -0.074354412987769 -0.063483926165135
-0.079961367396001 -0.074214435945877 -0.063167940956781
-0.080056873394482 -0.074075792054950 -0.062851978950023
-0.080151052355564 -0.073937825103346 -0.062537147793727
-0.080243639473643 -0.073800357895297 -0.062224184320181
-0.080334435128225 -0.073664061039465 -0.061913806163575
-0.080423969399889 -0.073529412231899 -0.061606511226809
-0.080512350706584 -0.073396168502925 -0.061302971971772
-0.080599293849934 -0.073263603500250 -0.061003668140522
-0.080683966289194 -0.073130687184957 -0.060707866427110
-0.080767470267851 -0.072997026908167 -0.060413443666995
-0.080851214953027 -0.072863018312215 -0.060117312159319
-0.080934830361561 -0.072729521319715 -0.059817190525514
-0.081018912189463 -0.072597288368576 -0.059511825919134
-0.081104282658696 -0.072467278930962 -0.059200568608299
-0.081192279733767 -0.072340080919707 -0.058883920761553
-0.081283082583684 -0.072215549312905 -0.058563721458603
-0.081375449757434 -0.072092818186141 -0.058242572220100
-0.081468846390918 -0.071971218390213 -0.057922730653576
-0.081561905890951 -0.071850871271709 -0.057605306608576
-0.081653222722604 -0.071731772349391 -0.057291085265221
-0.081742622627328 -0.071614375304995 -0.056979922748944
-0.081829426354646 -0.071499147262086 -0.056671488764936
-0.081914147793485 -0.071387042619916 -0.056364636720262
-0.081997321892082 -0.071278902695847 -0.056058521976529
-0.082079158452374 -0.071174522678855 -0.055752822899379
-0.082159942440561 -0.071072057628477 -0.055447369620150
-0.082239479389837 -0.070969642335673 -0.055141534181023
-0.082317041121390 -0.070865725559527 -0.054835306724519
