# This PCD file was generated using the MATLAB® pcwrite function
# from Computer Vision System Toolbox®.
# .PCD v.7 - Point Cloud Data file format
VERSION .7
FIELDS x y z
SIZE 8 8 8
TYPE F F F
COUNT 1 1 1
WIDTH 185
HEIGHT 1
VIEWPOINT 0 0 0 1 0 0 0
POINTS 185
DATA ascii
-0.080160822967036 -0.096161088150055 -0.110685349315566
-0.080129522296522 -0.096028477684984 -0.110391857085824
-0.080102579221293 -0.095893399463338 -0.110099086857560
-0.080079011410131 -0.095755325503562 -0.109806516737360
-0.080057108507968 -0.095613842665868 -0.109514138387417
-0.080035177485211 -0.095467360483191 -0.109222634366343
-0.080012071723368 -0.095313958626352 -0.108933167773663
-0.079987638279407 -0.095153786652254 -0.108646402064122
-0.079961457097865 -0.094988372591193 -0.108362822253302
-0.079934376948134 -0.094820500036077 -0.108082184806766
-0.079907322667112 -0.094652983532549 -0.107802807129041
-0.079880412965758 -0.094488509809220 -0.107523006314211
-0.079853622575770 -0.094328710182006 -0.107242438497503
-0.079826452569865 -0.094172798064553 -0.106961744952189
-0.079799013478541 -0.094019149838599 -0.106680898807381
-0.079771532461505 -0.093866138976478 -0.106400170497979
-0.079743862892887 -0.093712865629917 -0.106119080616420
-0.079717073683298 -0.093558741374688 -0.105837335219890
-0.079691967059635 -0.093403625822932 -0.105554803573068
-0.079669426517637 -0.093248396034578 -0.105271555565391
-0.079650465972199 -0.093093153754558 -0.104988294176131
-0.079635616251868 -0.092936767532625 -0.104705563642716
-0.079624838088142 -0.092776954765415 -0.104423658909165
-0.079618430974675 -0.092612786035559 -0.104142595909100
-0.079615002362486 -0.092444272717110 -0.103862876663198
-0.079613368371448 -0.092271895144411 -0.103585254478182
-0.079612180997402 -0.092095904252820 -0.103310205394264
-0.079610407289347 -0.091917101127031 -0.103037449912707
-0.079607318212654 -0.091737965460417 -0.102765024639084
-0.079604860502255 -0.091560493990716 -0.102491199236230
-0.079605969531299 -0.091384759491768 -0.102215161123731
-0.079613338189204 -0.091209587271218 -0.101936398378476
-0.079629204926502 -0.091034437749444 -0.101654461476317
-0.079655285435022 -0.090858472810010 -0.101369617233937
-0.079691401194631 -0.090680537979038 -0.101083081065688
-0.079736328350268 -0.090499822641588 -0.100796273304353
-0.079787761234058 -0.090316636993010 -0.100509699602917
-0.079843785365903 -0.090131399639010 -0.100223461037599
-0.079902265538076 -0.089944357556720 -0.099938391534994
-0.079961104162109 -0.089756347505325 -0.099655191866065
-0.080020429244851 -0.089567440623191 -0.099374275543424
-0.080080409665462 -0.089376436263050 -0.099096356058127
-0.080140703986786 -0.089181382481831 -0.098821643070146
-0.080200718340127 -0.088982609836031 -0.098549169615686
-0.080259809510405 -0.088781426734373 -0.098278381872984
-0.080317871213821 -0.088579141915959 -0.098009295079771
-0.080375517426239 -0.088376900889338 -0.097740941780674
-0.080433755954768 -0.088174787248859 -0.097473079926100
-0.080492319476890 -0.087972903818284 -0.097206049394386
-0.080550753176341 -0.087772080573296 -0.096939641335322
-0.080610033076543 -0.087572368193663 -0.096673626876432
-0.080672138203941 -0.087372454566312 -0.096407299505700
-0.080737674910396 -0.087170472551177 -0.096140722609313
-0.080806097493081 -0.086965116603351 -0.095874419307814
-0.080876122920802 -0.086756281431047 -0.095608268794526
-0.080945879136613 -0.086544927023242 -0.095341797533521
-0.081014011070226 -0.086332384735428 -0.095074269148361
-0.081079296245422 -0.086120568655989 -0.094804887874589
-0.081140537958924 -0.085910951425471 -0.094533630734340
-0.081196388871361 -0.085705687364941 -0.094260648763069
-0.081246638547112 -0.085506001335909 -0.093986588880157
-0.081290230047257 -0.085311414983692 -0.093711618371056
-0.081325861839049 -0.085121666706984 -0.093434963582647
-0.081352627145016 -0.084936928170750 -0.093155975488634
-0.081370769156730 -0.084756261573657 -0.092875028629440
-0.081381689127862 -0.084577941378988 -0.092593327705244
-0.081386577012764 -0.084400604320222 -0.092312371253068
-0.081385733975615 -0.084223873497485 -0.092033401188032
-0.081379288996164 -0.084047664369812 -0.091757148762648
-0.081366515993752 -0.083872361409606 -0.091483776445395
-0.081345521045427 -0.083699115652911 -0.091213178646506
-0.081313593169219 -0.083529802493422 -0.090943578330323
-0.081269332803574 -0.083365886227936 -0.090673324835517
-0.081214013261547 -0.083208474412657 -0.090401388877485
-0.081149008384138 -0.083057848005089 -0.090127380061843
-0.081075397938631 -0.082913225746663 -0.089850558136481
-0.080994388588191 -0.082774655124258 -0.089569950543408
-0.080907133378617 -0.082642741488236 -0.089284813945160
-0.080814892323874 -0.082516944664969 -0.088995172088983
-0.080718228894463 -0.082396404270861 -0.088701316504358
-0.080616775671221 -0.082279155159609 -0.088404218896970
-0.080509095994921 -0.082163277772721 -0.088105233182913
-0.080393083046796 -0.082048422258712 -0.087805154773212
-0.080268191915257 -0.081934622901923 -0.087504664620127
-0.080134225437336 -0.081821784647010 -0.087204153001620
-0.079990633704277 -0.081709714082724 -0.086903919698635
-0.079837366382816 -0.081598965422028 -0.086603599489968
-0.079674873928016 -0.081489840814980 -0.086303015901092
-0.079504154537101 -0.081382685386373 -0.086002004785938
-0.079325764613334 -0.081278084723407 -0.085700313091398
-0.079139693505625 -0.081177233713840 -0.085397862185291
-0.078946899908165 -0.081080252889720 -0.085095374535579
-0.078749313166195 -0.080987725247846 -0.084793057200417
-0.078548092628204 -0.080900413955650 -0.084490904957948
-0.078342993184629 -0.080818530413264 -0.084188335046554
-0.078133684793824 -0.080741782169726 -0.083885301399375
-0.077919998305656 -0.080670790053308 -0.083581612103566
-0.077701833877688 -0.080606894219707 -0.083277550858078
-0.077480058526853 -0.080550247295216 -0.082974211514523
-0.077255966959609 -0.080498623580579 -0.082672303855736
-0.077031016562117 -0.080449812007952 -0.082371071186744
-0.076807056593894 -0.080402562430372 -0.082069104398699
-0.076585304960067 -0.080356117966356 -0.081765210578493
-0.076367223965202 -0.080309696598110 -0.081458776854578
-0.076153707636981 -0.080261094447593 -0.081150321502912
-0.075944897128099 -0.080207528265272 -0.080841150551187
-0.075741156089693 -0.080146836913849 -0.080532186186302
-0.075543404104463 -0.080077529130347 -0.080224127623850
-0.075352781643441 -0.079999969080716 -0.079917043354280
-0.075169611683042 -0.079915755131685 -0.079611048730233
-0.074993891717347 -0.079827063758851 -0.079306272798783
-0.074825828954089 -0.079735575135589 -0.079002225475400
-0.074665883055004 -0.079643719753860 -0.078698404299131
-0.074514727515253 -0.079554607099467 -0.078394295003662
-0.074373756818350 -0.079468229134162 -0.078089579654561
-0.074243836387542 -0.079383539177931 -0.077784062368337
-0.074124046848986 -0.079299978136803 -0.077477457026606
-0.074012286197502 -0.079217776087936 -0.077169047925423
-0.073907488685952 -0.079135950582082 -0.076859004767051
-0.073809297485975 -0.079051870709362 -0.076548525685140
-0.073717604056846 -0.078961331834771 -0.076239455897398
-0.073633479050162 -0.078861177644397 -0.075933140647940
-0.073556943414972 -0.078751374492616 -0.075629597388727
-0.073488624601850 -0.078632675241923 -0.075328466205732
-0.073429360078803 -0.078505545223079 -0.075029864992309
-0.073378964206062 -0.078371813644717 -0.074732934710249
-0.073337050953327 -0.078233009371080 -0.074436892038286
-0.073304058926919 -0.078090571962333 -0.074141505542792
-0.073281152459285 -0.077946597304812 -0.073846913758195
-0.073270490713117 -0.077802714280960 -0.073553572778700
-0.073272550382258 -0.077658898820616 -0.073262025228890
-0.073286069497409 -0.077515119008534 -0.072972426922796
-0.073308785800218 -0.077371319529883 -0.072683710349817
-0.073338752978050 -0.077227178063892 -0.072394858111169
-0.073375326230789 -0.077082475387115 -0.072104935805098
-0.073420106000322 -0.076936195215896 -0.071813918727855
-0.073473599652012 -0.076788052322507 -0.071522265884024
-0.073535377891179 -0.076637979119091 -0.071230440258644
-0.073604713592287 -0.076484712249329 -0.070939028159236
-0.073680474287468 -0.076327600343870 -0.070648206227868
-0.073761579316664 -0.076166440616649 -0.070357556609748
-0.073848388884205 -0.076001210505610 -0.070066062807313
-0.073941007514280 -0.075832674850312 -0.069772657898811
-0.074037955612061 -0.075661949100289 -0.069476630427140
-0.074137539176164 -0.075490985567523 -0.069177352866081
-0.074238779169048 -0.075321095770185 -0.068874829539509
-0.074341334096482 -0.075152223480107 -0.068569666856514
-0.074445792661681 -0.074983593255311 -0.068262735006383
-0.074553101154166 -0.074813907583580 -0.067955691952932
-0.074663142520421 -0.074642305268456 -0.067650683925140
-0.074775117023593 -0.074469147272595 -0.067348676036997
-0.074887604536390 -0.074295174763279 -0.067050497567025
-0.074999532652120 -0.074121335738248 -0.066755825073836
-0.075110107672567 -0.073948337505843 -0.066464091427005
-0.075219388955793 -0.073777292498712 -0.066173717165797
-0.075327962296197 -0.073609233976542 -0.065883416363549
-0.075436145112051 -0.073444779027102 -0.065592724147715
-0.075544261701764 -0.073283785017332 -0.065301797156687
-0.075651726723692 -0.073125660038200 -0.065011349513919
-0.075758815250629 -0.072970757824983 -0.064720836823522
-0.075865450207131 -0.072819292296708 -0.064429252135987
-0.075970511536190 -0.072670983298565 -0.064136069384608
-0.076072656429854 -0.072525136106259 -0.063840362969702
-0.076170009855080 -0.072379991708629 -0.063542014300071
-0.076261752057912 -0.072234682805964 -0.063241155311340
-0.076347498529578 -0.072089399472454 -0.062938191167944
-0.076426515775465 -0.071944059576184 -0.062633974384420
-0.076497822982512 -0.071798608308438 -0.062328710528134
-0.076562087180985 -0.071653635449895 -0.062021548551500
-0.076620103838652 -0.071510321177396 -0.061712025731773
-0.076672590938161 -0.071369619553613 -0.061400504433558
-0.076721514908539 -0.071232273549143 -0.061087060592177
-0.076768523025843 -0.071098454325332 -0.060772626409993
-0.076813959133834 -0.070968412870754 -0.060458493610847
-0.076857482100453 -0.070842612493150 -0.060145461566863
-0.076898249186088 -0.070721072842210 -0.059833635880770
-0.076935553124954 -0.070603555751109 -0.059523248366902
-0.076970036548743 -0.070488756797658 -0.059214732101327
-0.077002438031212 -0.070374653886070 -0.058908499036474
-0.077033113111820 -0.070259525412453 -0.058605659019403
-0.077062304812321 -0.070142908509530 -0.058306161057290
-0.077089812839812 -0.070025175962828 -0.058008663604861
-0.077115716174218 -0.069906664337714 -0.057711789537477
-0.077138789557978 -0.069788231005878 -0.057414673821476
-0.077157252303911 -0.069670779851749 -0.057116974835123