# This PCD file was generated using the MATLAB® pcwrite function
# from Computer Vision System Toolbox®.
# .PCD v.7 - Point Cloud Data file format
VERSION .7
FIELDS x y z
SIZE 8 8 8
TYPE F F F
COUNT 1 1 1
WIDTH 185
HEIGHT 1
VIEWPOINT 0 0 0 1 0 0 0
POINTS 185
DATA ascii
-80.160822967035813 -96.161088150055306 -110.685349315565760
-80.129522296521898 -96.028477684983940 -110.391857085824180
-80.102579221292856 -95.893399463338355 -110.099086857560250
-80.079011410131287 -95.755325503561494 -109.806516737359740
-80.057108507968010 -95.613842665867566 -109.514138387416860
-80.035177485211349 -95.467360483191186 -109.222634366343390
-80.012071723367796 -95.313958626352360 -108.933167773662920
-79.987638279407008 -95.153786652253871 -108.646402064121660
-79.961457097864852 -94.988372591192785 -108.362822253301700
-79.934376948134414 -94.820500036076837 -108.082184806766040
-79.907322667112098 -94.652983532548561 -107.802807129040660
-79.880412965758055 -94.488509809219934 -107.523006314210850
-79.853622575770160 -94.328710182006432 -107.242438497503240
-79.826452569864898 -94.172798064552580 -106.961744952189180
-79.799013478540829 -94.019149838598878 -106.680898807380970
-79.771532461505302 -93.866138976478481 -106.400170497979200
-79.743862892887378 -93.712865629916934 -106.119080616420110
-79.717073683298480 -93.558741374687713 -105.837335219889720
-79.691967059634720 -93.403625822932185 -105.554803573067860
-79.669426517637135 -93.248396034578150 -105.271555565391400
-79.650465972198575 -93.093153754557846 -104.988294176130680
-79.635616251867759 -92.936767532624700 -104.705563642716300
-79.624838088142397 -92.776954765415070 -104.423658909164540
-79.618430974674723 -92.612786035559324 -104.142595909099570
-79.615002362486209 -92.444272717109939 -103.862876663198050
-79.613368371448388 -92.271895144410507 -103.585254478182080
-79.612180997402120 -92.095904252820475 -103.310205394264050
-79.610407289347378 -91.917101127031231 -103.037449912707060
-79.607318212653752 -91.737965460417172 -102.765024639084200
-79.604860502255349 -91.560493990715571 -102.491199236230050
-79.605969531299138 -91.384759491768378 -102.215161123730940
-79.613338189203972 -91.209587271217771 -101.936398378476330
-79.629204926502325 -91.034437749443711 -101.654461476316560
-79.655285435021966 -90.858472810009687 -101.369617233937330
-79.691401194631098 -90.680537979037595 -101.083081065688130
-79.736328350267982 -90.499822641587599 -100.796273304353380
-79.787761234057712 -90.316636993010462 -100.509699602916900
-79.843785365903329 -90.131399639009715 -100.223461037598610
-79.902265538075838 -89.944357556719680 -99.938391534993940
-79.961104162108967 -89.756347505325380 -99.655191866064854
-80.020429244850988 -89.567440623191430 -99.374275543423565
-80.080409665461872 -89.376436263050067 -99.096356058127085
-80.140703986785908 -89.181382481830866 -98.821643070146251
-80.200718340127409 -88.982609836030520 -98.549169615685685
-80.259809510404764 -88.781426734373042 -98.278381872983871
-80.317871213820766 -88.579141915958886 -98.009295079771135
-80.375517426238773 -88.376900889338486 -97.740941780674461
-80.433755954768060 -88.174787248858607 -97.473079926100127
-80.492319476889804 -87.972903818284223 -97.206049394386156
-80.550753176340564 -87.772080573296122 -96.939641335321880
-80.610033076542990 -87.572368193663365 -96.673626876432422
-80.672138203941046 -87.372454566311845 -96.407299505700479
-80.737674910395981 -87.170472551176871 -96.140722609312817
-80.806097493080514 -86.965116603351163 -95.874419307814421
-80.876122920802402 -86.756281431047441 -95.608268794526424
-80.945879136612874 -86.544927023241627 -95.341797533520818
-81.014011070226118 -86.332384735427866 -95.074269148360926
-81.079296245422427 -86.120568655988635 -94.804887874588758
-81.140537958923545 -85.910951425471140 -94.533630734339809
-81.196388871361250 -85.705687364941113 -94.260648763068545
-81.246638547112184 -85.506001335908877 -93.986588880156830
-81.290230047257154 -85.311414983691662 -93.711618371056034
-81.325861839048628 -85.121666706984428 -93.434963582646546
-81.352627145016115 -84.936928170749894 -93.155975488634510
-81.370769156729551 -84.756261573657170 -92.875028629439555
-81.381689127862401 -84.577941378987617 -92.593327705244050
-81.386577012763837 -84.400604320222214 -92.312371253067965
-81.385733975614784 -84.223873497484888 -92.033401188032101
-81.379288996163638 -84.047664369811770 -91.757148762648313
-81.366515993752230 -83.872361409605787 -91.483776445395250
-81.345521045426977 -83.699115652910947 -91.213178646506179
-81.313593169219104 -83.529802493421556 -90.943578330322879
-81.269332803574386 -83.365886227936315 -90.673324835516766
-81.214013261547265 -83.208474412656969 -90.401388877484507
-81.149008384138142 -83.057848005089397 -90.127380061842658
-81.075397938631070 -82.913225746663159 -89.850558136480927
-80.994388588190901 -82.774655124257990 -89.569950543408396
-80.907133378616521 -82.642741488235814 -89.284813945159669
-80.814892323873835 -82.516944664968634 -88.995172088983153
-80.718228894462641 -82.396404270860884 -88.701316504357550
-80.616775671221419 -82.279155159608848 -88.404218896970434
-80.509095994920798 -82.163277772721329 -88.105233182913480
-80.393083046796463 -82.048422258711710 -87.805154773211839
-80.268191915257447 -81.934622901922808 -87.504664620127002
-80.134225437335601 -81.821784647010034 -87.204153001619687
-79.990633704276959 -81.709714082724247 -86.903919698634851
-79.837366382815532 -81.598965422028044 -86.603599489968204
-79.674873928016254 -81.489840814979516 -86.303015901092365
-79.504154537101215 -81.382685386372543 -86.002004785937885
-79.325764613334400 -81.278084723407474 -85.700313091398272
-79.139693505625232 -81.177233713840138 -85.397862185291103
-78.946899908164724 -81.080252889720100 -85.095374535578955
-78.749313166194668 -80.987725247846171 -84.793057200416797
-78.548092628204117 -80.900413955650322 -84.490904957947734
-78.342993184628909 -80.818530413263645 -84.188335046553732
-78.133684793824244 -80.741782169725582 -83.885301399375464
-77.919998305655881 -80.670790053308409 -83.581612103566428
-77.701833877687577 -80.606894219707058 -83.277550858077674
-77.480058526852758 -80.550247295216067 -82.974211514522523
-77.255966959609296 -80.498623580579448 -82.672303855736146
-77.031016562117472 -80.449812007951621 -82.371071186744274
-76.807056593894032 -80.402562430372271 -82.069104398698983
-76.585304960067205 -80.356117966355512 -81.765210578492770
-76.367223965201589 -80.309696598110321 -81.458776854578076
-76.153707636980940 -80.261094447593408 -81.150321502911950
-75.944897128099072 -80.207528265272231 -80.841150551187170
-75.741156089692780 -80.146836913849143 -80.532186186302269
-75.543404104463136 -80.077529130347344 -80.224127623850407
-75.352781643441418 -79.999969080716255 -79.917043354280125
-75.169611683041936 -79.915755131684890 -79.611048730233279
-74.993891717347125 -79.827063758851153 -79.306272798782643
-74.825828954089417 -79.735575135589016 -79.002225475399982
-74.665883055003903 -79.643719753860339 -78.698404299131283
-74.514727515253057 -79.554607099467049 -78.394295003662194
-74.373756818349818 -79.468229134161859 -78.089579654561447
-74.243836387542061 -79.383539177930885 -77.784062368337345
-74.124046848986367 -79.299978136802920 -77.477457026605791
-74.012286197501538 -79.217776087935960 -77.169047925422944
-73.907488685951662 -79.135950582082074 -76.859004767051132
-73.809297485975236 -79.051870709362291 -76.548525685139609
-73.717604056845744 -78.961331834770661 -76.239455897397775
-73.633479050161824 -78.861177644397429 -75.933140647940135
-73.556943414972238 -78.751374492615568 -75.629597388727333
-73.488624601850049 -78.632675241922982 -75.328466205731644
-73.429360078802787 -78.505545223079395 -75.029864992309086
-73.378964206061909 -78.371813644716781 -74.732934710248685
-73.337050953326653 -78.233009371080399 -74.436892038285990
-73.304058926919396 -78.090571962333343 -74.141505542791819
-73.281152459285408 -77.946597304811974 -73.846913758194802
-73.270490713116800 -77.802714280959890 -73.553572778699646
-73.272550382257577 -77.658898820615818 -73.262025228889982
-73.286069497408903 -77.515119008534185 -72.972426922796231
-73.308785800217748 -77.371319529883181 -72.683710349816991
-73.338752978049797 -77.227178063891714 -72.394858111169498
-73.375326230788772 -77.082475387115068 -72.104935805098464
-73.420106000322107 -76.936195215896220 -71.813918727855480
-73.473599652011600 -76.788052322507269 -71.522265884023980
-73.535377891178825 -76.637979119091199 -71.230440258644123
-73.604713592286757 -76.484712249329135 -70.939028159235562
-73.680474287467803 -76.327600343869889 -70.648206227867561
-73.761579316664381 -76.166440616648728 -70.357556609748499
-73.848388884205121 -76.001210505610089 -70.066062807313472
-73.941007514279917 -75.832674850312387 -69.772657898811318
-74.037955612060713 -75.661949100289306 -69.476630427140464
-74.137539176164211 -75.490985567523097 -69.177352866081335
-74.238779169047689 -75.321095770184670 -68.874829539508852
-74.341334096482342 -75.152223480107224 -68.569666856513805
-74.445792661681011 -74.983593255310595 -68.262735006382997
-74.553101154165645 -74.813907583579692 -67.955691952932114
-74.663142520420720 -74.642305268455829 -67.650683925139589
-74.775117023592500 -74.469147272594739 -67.348676036996892
-74.887604536389574 -74.295174763278695 -67.050497567025488
-74.999532652120109 -74.121335738248206 -66.755825073835751
-75.110107672567352 -73.948337505843199 -66.464091427005215
-75.219388955792539 -73.777292498712328 -66.173717165797001
-75.327962296196986 -73.609233976542285 -65.883416363549301
-75.436145112050895 -73.444779027101760 -65.592724147715018
-75.544261701763588 -73.283785017332093 -65.301797156686831
-75.651726723691780 -73.125660038199882 -65.011349513918830
-75.758815250629354 -72.970757824982627 -64.720836823521978
-75.865450207131204 -72.819292296708255 -64.429252135986957
-75.970511536190102 -72.670983298564551 -64.136069384607666
-76.072656429853694 -72.525136106259041 -63.840362969702433
-76.170009855079542 -72.379991708629319 -63.542014300070761
-76.261752057912261 -72.234682805964169 -63.241155311340378
-76.347498529578473 -72.089399472453977 -62.938191167943607
-76.426515775464679 -71.944059576183562 -62.633974384419936
-76.497822982511551 -71.798608308437991 -62.328710528134167
-76.562087180984548 -71.653635449894580 -62.021548551500089
-76.620103838652199 -71.510321177395952 -61.712025731773451
-76.672590938160724 -71.369619553613447 -61.400504433558453
-76.721514908538907 -71.232273549142803 -61.087060592176883
-76.768523025843507 -71.098454325331829 -60.772626409993407
-76.813959133833947 -70.968412870754420 -60.458493610846674
-76.857482100453268 -70.842612493149730 -60.145461566862679
-76.898249186088037 -70.721072842210120 -59.833635880769549
-76.935553124954126 -70.603555751109354 -59.523248366902493
-76.970036548742698 -70.488756797658070 -59.214732101327058
-77.002438031212122 -70.374653886069538 -58.908499036474311
-77.033113111820398 -70.259525412452817 -58.605659019402609
-77.062304812320818 -70.142908509530017 -58.306161057290396
-77.089812839811700 -70.025175962828172 -58.008663604861255
-77.115716174217596 -69.906664337714375 -57.711789537477472
-77.138789557978399 -69.788231005877591 -57.414673821476164
-77.157252303910610 -69.670779851749217 -57.116974835122534