# This PCD file was generated using the MATLAB® pcwrite function
# from Computer Vision System Toolbox®.
# .PCD v.7 - Point Cloud Data file format
VERSION .7
FIELDS x y z
SIZE 8 8 8
TYPE F F F
COUNT 1 1 1
WIDTH 184
HEIGHT 1
VIEWPOINT 0 0 0 1 0 0 0
POINTS 184
DATA ascii
-0.074226551309889 -0.092112868549449 -0.107795606339644
-0.074270844818241 -0.091909984952858 -0.107491326637159
-0.074332180533326 -0.091699470885183 -0.107189159998084
-0.074405749571562 -0.091483939741627 -0.106889289062933
-0.074486854586651 -0.091266501582977 -0.106590746896783
-0.074572473220037 -0.091050166572294 -0.106292596801835
-0.074658715195747 -0.090833870340262 -0.105995114198104
-0.074743322115114 -0.090618550116196 -0.105697776115027
-0.074823633149299 -0.090405030417118 -0.105399474453444
-0.074898256273881 -0.090193869003735 -0.105099851823507
-0.074966584657060 -0.089984122266827 -0.104800371901143
-0.075029940160572 -0.089776446042364 -0.104502156106326
-0.075091398397780 -0.089575049377421 -0.104203804605992
-0.075150962011666 -0.089376189680021 -0.103905381593519
-0.075207937867253 -0.089178187113870 -0.103606345187438
-0.075261949685082 -0.088980821955537 -0.103306005372652
-0.075313301168684 -0.088782405920130 -0.103004692994859
-0.075363364160937 -0.088582691329309 -0.102701445077246
-0.075413027778481 -0.088381821973640 -0.102395887055841
-0.075462024485677 -0.088184019288218 -0.102087205282535
-0.075506884862774 -0.087987951891361 -0.101777450508399
-0.075545715331752 -0.087794624834393 -0.101467185182166
-0.075578632029150 -0.087602424610693 -0.101156828683119
-0.075608563528927 -0.087411412898257 -0.100846707111935
-0.075640512606710 -0.087222641486097 -0.100536612681484
-0.075677865776048 -0.087031808066496 -0.100227548081941
-0.075723180991638 -0.086837693215798 -0.099919564941932
-0.075776883925688 -0.086640290122107 -0.099613023011362
-0.075838648505126 -0.086439234578941 -0.099308542912280
-0.075906075228183 -0.086234862658726 -0.099006132742457
-0.075978329694225 -0.086029797324479 -0.098704579447624
-0.076056697538701 -0.085833035418052 -0.098400258952054
-0.076138121587679 -0.085635428820730 -0.098096698801307
-0.076225636197769 -0.085441449581394 -0.097792686227611
-0.076429034669866 -0.085054548460458 -0.097188073111802
-0.076543827220319 -0.084858487957122 -0.096888089489727
-0.076664022491993 -0.084661078471543 -0.096589617225160
-0.076787457736049 -0.084463219871603 -0.096292765224650
-0.076912421084753 -0.084265481686447 -0.095997336517752
-0.077039661249299 -0.084077849986832 -0.095699005339083
-0.077169552451389 -0.083905587829580 -0.095396004131185
-0.077297638075682 -0.083734249722701 -0.095093987463011
-0.077423033962705 -0.083563781513821 -0.094792325497824
-0.077544833444074 -0.083394186925789 -0.094490502411002
-0.077663179810031 -0.083230270006851 -0.094186541914662
-0.077776964107816 -0.083067486055484 -0.093881966848807
-0.077887720553319 -0.082905058999116 -0.093576424859413
-0.077995095211071 -0.082742626270497 -0.093268880219919
-0.078097803719557 -0.082580200198978 -0.092958605404236
-0.078198412349648 -0.082433369993188 -0.092639930148999
-0.078291135887420 -0.082291904992114 -0.092316727184620
-0.078371750125975 -0.082150760912298 -0.091990415687705
-0.078438317656228 -0.082010497758009 -0.091660603914997
-0.078490490542103 -0.081871625092857 -0.091327341815127
-0.078526949384871 -0.081733708479129 -0.090991418407450
-0.078548124573429 -0.081596913277834 -0.090653389472970
-0.078556422583020 -0.081459314629778 -0.090314418514321
-0.078556124914484 -0.081320043639491 -0.089975914472527
-0.078551629314838 -0.081181645145073 -0.089638424630293
-0.078542328379476 -0.081044463257031 -0.089302625147929
-0.078527797654841 -0.080908790472332 -0.088969114964478
-0.078507555271990 -0.080773574510119 -0.088638825113579
-0.078482485281925 -0.080640224915608 -0.088311801829195
-0.078453367087461 -0.080508381401438 -0.087987323865149
-0.078420425986922 -0.080377128184356 -0.087663250737633
-0.078382497134421 -0.080245889019876 -0.087337889218920
-0.078334702080013 -0.080108422840551 -0.087012606694650
-0.078275048371373 -0.079968165301293 -0.086684927406854
-0.078202659017042 -0.079827250719447 -0.086353364453272
-0.078115782684862 -0.079685111635863 -0.086018389579383
-0.078013117901900 -0.079540284518315 -0.085681144479044
-0.077895656425560 -0.079395837713210 -0.085341814566671
-0.077765701610065 -0.079252456864422 -0.085002354730606
-0.077622900142419 -0.079099779900314 -0.084668264143574
-0.077471452222581 -0.078947092555106 -0.084337376195745
-0.077313019762135 -0.078796243906464 -0.084009318077389
-0.077148310079429 -0.078646737930841 -0.083683172092887
-0.076978155856712 -0.078500565950959 -0.083357261891732
-0.076807109668762 -0.078376147966457 -0.083024263565172
-0.076626446806135 -0.078245619235315 -0.082693804792541
-0.076435823510265 -0.078115475271545 -0.082363581571396
-0.076233554652469 -0.077986910955173 -0.082032968017341
-0.076019556581116 -0.077859978726364 -0.081701462012919
-0.075795706439291 -0.077734396087320 -0.081368450226770
-0.075565164191759 -0.077609446921635 -0.081033873956817
-0.075330539867252 -0.077480976996671 -0.080698996580332
-0.075097870362928 -0.077362549107201 -0.080358794959780
-0.074871276178945 -0.077261446109142 -0.080010582671865
-0.074648215480575 -0.077158585013646 -0.079661337706241
-0.074430498685663 -0.077053480341085 -0.079311335815716
-0.074220383512031 -0.076945574111924 -0.078960610033251
-0.074018331461302 -0.076834976149029 -0.078609148469193
-0.073824349528734 -0.076721451534855 -0.078257627875036
-0.073639003594458 -0.076605204284157 -0.077906829624636
-0.073464739753027 -0.076497244721757 -0.077552806956687
-0.073300654506342 -0.076401525488194 -0.077194076228653
-0.073140875614031 -0.076305647743073 -0.076835459721077
-0.072983871880743 -0.076207710484163 -0.076478229490463
-0.072830589169857 -0.076108558407895 -0.076122802488316
-0.072683586983154 -0.076007456836448 -0.075769824835039
-0.072544469753865 -0.075903481243285 -0.075419062883659
-0.072414482359344 -0.075795974287449 -0.075070456236908
-0.072294516752772 -0.075684299037169 -0.074723627253529
-0.072185079037383 -0.075568191280421 -0.074378557482343
-0.072088533743505 -0.075452512950666 -0.074033794761371
-0.072006092241767 -0.075339320220073 -0.073688827804350
-0.071936332524506 -0.075220669741074 -0.073347111747369
-0.071880298933993 -0.075097999053665 -0.073008960235157
-0.071838573201434 -0.074971503842401 -0.072674413557922
-0.071810938901155 -0.074839601815093 -0.072343610337142
-0.071796778676584 -0.074699856236513 -0.072016824216545
-0.071796761471301 -0.074553487840423 -0.071692070190883
-0.071810754284509 -0.074400453333596 -0.071368210405177
-0.071836146144850 -0.074241737241186 -0.071044506242349
-0.071870622312000 -0.074078296813719 -0.070720490194439
-0.071913335010986 -0.073910425641538 -0.070395864568341
-0.071963032144013 -0.073738795072221 -0.070070717141747
-0.072021081886968 -0.073568417050051 -0.069744095542890
-0.072085499440690 -0.073395589451955 -0.069418363392009
-0.072155067261540 -0.073221832114575 -0.069093758937255
-0.072228105460301 -0.073047964215514 -0.068770352956051
-0.072304634253034 -0.072873134825773 -0.068448706211365
-0.072386258329920 -0.072696579278826 -0.068128871521770
-0.072474998434128 -0.072517545272310 -0.067811408861980
-0.072570991467734 -0.072335996810486 -0.067496391245903
-0.072672398157244 -0.072152416545500 -0.067183127123736
-0.072777096706423 -0.071967753339693 -0.066871187551396
-0.072885978359746 -0.071786896280743 -0.066559875591384
-0.073001741857023 -0.071611338121683 -0.066249381557850
-0.073124705094321 -0.071433886642664 -0.065941588256165
-0.073255751017548 -0.071254039058513 -0.065636166943041
-0.073394545318891 -0.071071727136855 -0.065332611395746
-0.073539795315422 -0.070886928901339 -0.065030406590317
-0.073689695009005 -0.070699176479386 -0.064728243216739
-0.073843447991373 -0.070509485270296 -0.064425287357525
-0.074000157878774 -0.070323430873233 -0.064120067706419
-0.074158471538453 -0.070144149387571 -0.063812192799276
-0.074314877925522 -0.069965661618580 -0.063504558711857
-0.074466855338820 -0.069788661227806 -0.063196580698370
-0.074611897998137 -0.069613901169358 -0.062887839349098
-0.074749030382372 -0.069440620967569 -0.062578647898195
-0.074879659647298 -0.069269698208069 -0.062268719445457
-0.075006101535053 -0.069106663175751 -0.061955093588143
-0.075128204887161 -0.068944471561515 -0.061639837776001
-0.075246787649463 -0.068782840441176 -0.061322936101192
-0.075362280329119 -0.068621594398913 -0.061004311058036
-0.075475550521982 -0.068460483021619 -0.060684075365332
-0.075588343819843 -0.068299423357654 -0.060362244895132
-0.075701395240317 -0.068143797721219 -0.060036218434403
-0.075813336159810 -0.067991600650331 -0.059706708727720
-0.075923289542078 -0.067839328993555 -0.059375725346446
-0.076031468696840 -0.067687134474971 -0.059043805519234
-0.076138477440847 -0.067535144999111 -0.058711674541506
-0.076245479349515 -0.067383246863296 -0.058379780087317
-0.076352861289816 -0.067231499819276 -0.058048528309316
-0.076460159955494 -0.067082911302611 -0.057716996742812
-0.076565511703755 -0.066936260218232 -0.057385881165712
-0.076667819836122 -0.066790592193935 -0.057055445188168
-0.076765820953587 -0.066646289181306 -0.056725899587286
-0.076858273633752 -0.066503794495233 -0.056397483367603
-0.076945546697554 -0.066363060686170 -0.056070024314079
-0.077027782602955 -0.066223399577279 -0.055742158208299
-0.077105515475226 -0.066084152521753 -0.055412581334516
-0.077180064979969 -0.065944645041917 -0.055080779241809
-0.077253737315707 -0.065808976638123 -0.054744891145320
-0.077327018264083 -0.065674369526888 -0.054406182639613
-0.077401589284615 -0.065538868630342 -0.054065725558909
-0.077478811228852 -0.065402406789574 -0.053724175715439
-0.077558948091947 -0.065265325590297 -0.053382672877545
-0.077643838564956 -0.065138353056386 -0.053038258136138
-0.077729800049339 -0.065015063277652 -0.052693195345177
-0.077814816307562 -0.064895191515175 -0.052347991715577
-0.077895652580517 -0.064776586295079 -0.052004332138640
-0.077970739551266 -0.064659433347681 -0.051661830101333
-0.078039346401429 -0.064543576534295 -0.051319496593447
-0.078102019066752 -0.064428794330052 -0.050976942876758
-0.078162702373588 -0.064325029795703 -0.050631010349016
-0.078223277368883 -0.064237242948386 -0.050280631651163
-0.078279993916138 -0.064150434021166 -0.049931385107186
-0.078333154540807 -0.064064363381749 -0.049582433677973
-0.078381603113833 -0.063978952226428 -0.049232409250595
-0.078425010729410 -0.063894115764782 -0.048880636212846
-0.078463550233333 -0.063809802086925 -0.048527026643751
-0.078498299130219 -0.063727195705162 -0.048171792751630