# This PCD file was generated using the MATLAB® pcwrite function
# from Computer Vision System Toolbox®.
# .PCD v.7 - Point Cloud Data file format
VERSION .7
FIELDS x y z
SIZE 8 8 8
TYPE F F F
COUNT 1 1 1
WIDTH 184
HEIGHT 1
VIEWPOINT 0 0 0 1 0 0 0
POINTS 184
DATA ascii
-0.083411681106158 -0.093763867562349 -0.109536057816958
-0.083400237571600 -0.093594387886995 -0.109262003659326
-0.083395533040258 -0.093422913096344 -0.108989982399332
-0.083396922783544 -0.093249999313881 -0.108720371296804
-0.083403562495813 -0.093074050843694 -0.108453848542240
-0.083415337293270 -0.092895418412139 -0.108189328104878
-0.083431096563372 -0.092715122171384 -0.107925266572692
-0.083449078270090 -0.092533159959602 -0.107660331566751
-0.083467729507636 -0.092350171617623 -0.107393604725662
-0.083487061970975 -0.092170274280232 -0.107123699377347
-0.083505193601989 -0.091990255479923 -0.106852730183417
-0.083521801945266 -0.091810034789094 -0.106581084152549
-0.083536329447890 -0.091630198191143 -0.106309012828937
-0.083548602894158 -0.091450951543922 -0.106036236246563
-0.083560175323582 -0.091272186930866 -0.105762620193583
-0.083572027975344 -0.091093092321683 -0.105488617685028
-0.083585056677218 -0.090913501923629 -0.105214693551002
-0.083600310904620 -0.090733011116374 -0.104940977406631
-0.083618671934877 -0.090550998522549 -0.104667452943467
-0.083641806988922 -0.090366524946012 -0.104393867259143
-0.083671493063084 -0.090178903162722 -0.104120112332251
-0.083708877868764 -0.089987861554639 -0.103846599333212
-0.083753424410614 -0.089794220308496 -0.103574227328028
-0.083803187139315 -0.089599552179784 -0.103303903736172
-0.083857588780897 -0.089411275359442 -0.103032611052021
-0.083912851069452 -0.089222896336149 -0.102762377048518
-0.083967031024657 -0.089034332621924 -0.102492379668542
-0.084018831854885 -0.088846117544870 -0.102221370451046
-0.084068006692198 -0.088658000001141 -0.101948778328042
-0.084115909827473 -0.088469537285380 -0.101674783016188
-0.084164291157425 -0.088280472855883 -0.101400128562159
-0.084215742112384 -0.088094154085558 -0.101124008931882
-0.084323588810051 -0.087714359509963 -0.100572069433761
-0.084378917092728 -0.087527483840839 -0.100293112416980
-0.084433027142507 -0.087341710245602 -0.100012681778521
-0.084487835551857 -0.087160211168424 -0.099729964775983
-0.084543706187484 -0.086978458131613 -0.099447509689502
-0.084600290720521 -0.086796945321743 -0.099165953474726
-0.084656791535045 -0.086616208297210 -0.098885706123175
-0.084712221551908 -0.086438876591512 -0.098606026556834
-0.084764599432991 -0.086265274806500 -0.098327190285905
-0.084815057591854 -0.086106506356623 -0.098044794073963
-0.084860599315564 -0.085954109578777 -0.097762327191624
-0.084901104770186 -0.085803496193048 -0.097480870523499
-0.084938047382669 -0.085654088128242 -0.097200015558273
-0.084972760217689 -0.085505084059643 -0.096918834439318
-0.085007436956180 -0.085355453511492 -0.096636378323300
-0.085044569542494 -0.085204246884031 -0.096352012610427
-0.085084892391283 -0.085051104015759 -0.096065389208294
-0.085126442094911 -0.084896540604857 -0.095776541781946
-0.085166437666835 -0.084743923407787 -0.095485028735297
-0.085202570998654 -0.084594636323997 -0.095191483679345
-0.085233617263176 -0.084446308401988 -0.094897302180900
-0.085259848430912 -0.084299150055470 -0.094603065746800
-0.085282326045399 -0.084158228799481 -0.094307162064545
-0.085301250287861 -0.084026141276394 -0.094008668036843
-0.085312397243173 -0.083895293846079 -0.093710846995436
-0.085313841475471 -0.083766181677111 -0.093414298306445
-0.085304811070037 -0.083639195684548 -0.093119704771298
-0.085285396891735 -0.083514320587672 -0.092827056705072
-0.085255792036248 -0.083392473850395 -0.092534907388208
-0.085217447403469 -0.083272577055681 -0.092242793710861
-0.085171311590921 -0.083153626694437 -0.091950723977037
-0.085117304506709 -0.083034394361110 -0.091658845995595
-0.085055063596918 -0.082912115240618 -0.091367968965032
-0.084986417596723 -0.082790173459371 -0.091076461982225
-0.084912190218586 -0.082668601303263 -0.090784577672387
-0.084832761965766 -0.082547462694162 -0.090492543878988
-0.084748213869440 -0.082426458104284 -0.090199698940937
-0.084658508622784 -0.082305350369076 -0.089905496859112
-0.084563580771309 -0.082184175559018 -0.089609885733168
-0.084463270620335 -0.082063404818657 -0.089313644894304
-0.084357393450943 -0.081943411605111 -0.089017960160699
-0.084243903438529 -0.081817887742324 -0.088726470177487
-0.084122571148774 -0.081691856532664 -0.088438332601679
-0.083993339956774 -0.081567470318348 -0.088152598859131
-0.083855670793197 -0.081444500614915 -0.087868700913625
-0.083708612498378 -0.081322647226357 -0.087585857685971
-0.083554991045754 -0.081210685986407 -0.087299729168940
-0.083395022404756 -0.081105099885512 -0.087011805023933
-0.083228589125790 -0.080998333576852 -0.086725414629874
-0.083056779218625 -0.080887159766027 -0.086441593060433
-0.082880527375175 -0.080777020692058 -0.086158136606940
-0.082698845936301 -0.080667482936581 -0.085875144809179
-0.082511627928931 -0.080558825654241 -0.085592087177193
-0.082319922992673 -0.080450718868888 -0.085308398290034
-0.082125551987450 -0.080342729262816 -0.085023924906367
-0.081929039430029 -0.080231184401555 -0.084740068832053
-0.081729502798040 -0.080114986254337 -0.084457265922806
-0.081527412222346 -0.079998802656004 -0.084173642307853
-0.081328184837766 -0.079902485357794 -0.083880698719324
-0.081126369934137 -0.079807029868670 -0.083586199802364
-0.080922915440489 -0.079711510576790 -0.083290633153404
-0.080718311635372 -0.079615856821815 -0.082994151000036
-0.080512714358778 -0.079520009631114 -0.082696733760452
-0.080307235592391 -0.079423818187960 -0.082398744278633
-0.080103039815613 -0.079327307037958 -0.082100902224042
-0.079901030749338 -0.079229130028343 -0.081803745653002
-0.079702171421128 -0.079128792357003 -0.081507838957694
-0.079511684668993 -0.079042068462944 -0.081206726316612
-0.079327005037546 -0.078958948214132 -0.080904993487448
-0.079147492634304 -0.078874509554102 -0.080604936085282
-0.078975250389188 -0.078788020371481 -0.080306872834786
-0.078811858883346 -0.078698831376917 -0.080010859401759
-0.078656630885644 -0.078606721923520 -0.079715937615230
-0.078507767740774 -0.078512010986112 -0.079421264396861
-0.078364308292950 -0.078414532556646 -0.079125764434545
-0.078227003744040 -0.078315876022308 -0.078827678403324
-0.078095344876592 -0.078214585196363 -0.078527374202999
-0.077968496421291 -0.078110400372799 -0.078225520580709
-0.077847129880914 -0.078006517565812 -0.077921967856844
-0.077733333227355 -0.077904803715642 -0.077617594703250
-0.077627427936712 -0.077800697630071 -0.077316383973922
-0.077529821444149 -0.077694257360780 -0.077018843876931
-0.077442027229231 -0.077589970235128 -0.076721907691025
-0.077362975055963 -0.077482290172304 -0.076426983813560
-0.077292412488623 -0.077370941342953 -0.076133877234950
-0.077229829284215 -0.077256329278281 -0.075842147931225
-0.077174950672709 -0.077137964200687 -0.075551230294686
-0.077127491533346 -0.077015767121859 -0.075260667543380
-0.077087153454496 -0.076889645849247 -0.074969961376212
-0.077052930501353 -0.076759680272867 -0.074678199727178
-0.077024167569809 -0.076624702046046 -0.074385276879104
-0.077001419612891 -0.076485503639000 -0.074090848184806
-0.076984756016056 -0.076342438485909 -0.073795225791942
-0.076973034257196 -0.076197076145655 -0.073498751836689
-0.076965569671345 -0.076050232060429 -0.073201512060014
-0.076962018176573 -0.075901122332491 -0.072903910742973
-0.076964114138541 -0.075749178527508 -0.072606646446370
-0.076976832299676 -0.075597192040711 -0.072309291726787
-0.077001722101645 -0.075440416948798 -0.072013660754061
-0.077039818074416 -0.075278041593352 -0.071720021980145
-0.077089860513423 -0.075110758524909 -0.071428509605660
-0.077150005628174 -0.074939067710603 -0.071138876737791
-0.077218201299046 -0.074763911601584 -0.070850923547242
-0.077291681219430 -0.074586852163869 -0.070564460118981
-0.077366739223938 -0.074409354522180 -0.070278707183625
-0.077440936213749 -0.074234428903441 -0.069992308392265
-0.077513723223351 -0.074068131921404 -0.069703224480495
-0.077582362085149 -0.073903887844587 -0.069414783552870
-0.077646712903059 -0.073741951661978 -0.069127403402379
-0.077706931481944 -0.073582204371051 -0.068840733714233
-0.077766093370925 -0.073423289760355 -0.068554843784207
-0.077828115179052 -0.073263611988905 -0.068269901419914
-0.077896622370392 -0.073101723550474 -0.067986083185450
-0.077974306816477 -0.072936408702826 -0.067703219263112
-0.078062279978695 -0.072767016464770 -0.067420921495195
-0.078159268690964 -0.072593764605870 -0.067138507713312
-0.078265161881823 -0.072426063859595 -0.066851347920981
-0.078374651265866 -0.072256656781798 -0.066562082044644
-0.078484965086093 -0.072085964727752 -0.066270617305597
-0.078594038504639 -0.071914618130524 -0.065976732739934
-0.078699560499725 -0.071743416220373 -0.065680388291795
-0.078800401259306 -0.071572790525666 -0.065381654689828
-0.078896835135641 -0.071402647844267 -0.065080540403993
-0.078990723660165 -0.071239517205288 -0.064774771953478
-0.079081802462608 -0.071078511346306 -0.064467501309549
-0.079171066318479 -0.070917612260995 -0.064160762090951
-0.079259052294350 -0.070757565376541 -0.063855081092579
-0.079345623854445 -0.070598650819303 -0.063551005627590
-0.079430515596920 -0.070441304666814 -0.063249350522359
-0.079514919659904 -0.070288365057749 -0.062949635487371
-0.079599201653868 -0.070140505994369 -0.062652152981638
-0.079682459968606 -0.069994803423051 -0.062358293497916
-0.079764385908326 -0.069852094976281 -0.062066549747453
-0.079845510715163 -0.069709952206436 -0.061775642222261
-0.079926781532408 -0.069567123496122 -0.061483165863351
-0.080007447163363 -0.069423109622239 -0.061187402536530
-0.080087371837597 -0.069276055115627 -0.060888180139647
-0.080167407671097 -0.069127026030019 -0.060584804772293
-0.080248772268511 -0.068976181157626 -0.060277956435142
-0.080332397129126 -0.068826057769737 -0.059968362637204
-0.080417391928910 -0.068677041819649 -0.059658106107752
-0.080503220065433 -0.068528457960461 -0.059349447022713
-0.080588671066167 -0.068380984157833 -0.059043264562793
-0.080672565651078 -0.068235422600112 -0.058740009615697
-0.080756511540224 -0.068098580281164 -0.058436905427054
-0.080837725013157 -0.067963421229664 -0.058136731064006
-0.080916330984353 -0.067829513029064 -0.057838914644771
-0.080992460910032 -0.067696258421247 -0.057543207691862
-0.081066484767551 -0.067564023670753 -0.057249051911161
-0.081139083842926 -0.067432376841454 -0.056955691870052
-0.081210443000701 -0.067300805159435 -0.056661939147282
-0.081280932217283 -0.067171672651244 -0.056366161357086