# .PCD v.7 - Point Cloud Data file format
VERSION .7
FIELDS x y z
SIZE 4 4 4
TYPE F F F
COUNT 1 1 1
WIDTH 185
HEIGHT 1
POINTS 185
DATA ascii
-0.002032 0.009517 -0.038618
-0.001341 0.010390 -0.038693
-0.000688 0.011152 -0.038781
-0.000070 0.011819 -0.038878
0.000521 0.012402 -0.038983
0.001087 0.012916 -0.039093
0.001633 0.013369 -0.039207
0.002162 0.013771 -0.039324
0.002677 0.014130 -0.039444
0.003180 0.014454 -0.039566
0.003674 0.014748 -0.039689
0.004160 0.015017 -0.039814
0.004640 0.015265 -0.039940
0.005115 0.015496 -0.040067
0.005586 0.015713 -0.040195
0.006054 0.015918 -0.040324
0.006520 0.016112 -0.040454
0.006983 0.016296 -0.040584
0.007445 0.016472 -0.040716
0.007905 0.016639 -0.040848
0.008363 0.016798 -0.040981
0.008819 0.016949 -0.041115
0.009273 0.017090 -0.041249
0.009725 0.017222 -0.041384
0.010174 0.017343 -0.041518
0.010621 0.017453 -0.041654
0.011065 0.017551 -0.041789
0.011506 0.017635 -0.041924
0.011943 0.017705 -0.042059
0.012376 0.017760 -0.042193
0.012804 0.017799 -0.042327
0.013229 0.017821 -0.042460
0.013648 0.017825 -0.042593
0.014063 0.017810 -0.042724
0.014472 0.017776 -0.042854
0.014875 0.017722 -0.042983
0.015273 0.017647 -0.043111
0.015666 0.017551 -0.043237
0.016052 0.017434 -0.043361
0.016433 0.017296 -0.043484
0.016808 0.017137 -0.043605
0.017177 0.016956 -0.043725
0.017540 0.016755 -0.043843
0.017897 0.016532 -0.043958
0.018249 0.016289 -0.044073
0.018595 0.016027 -0.044185
0.018936 0.015745 -0.044296
0.019272 0.015445 -0.044405
0.019603 0.015128 -0.044513
0.019930 0.014794 -0.044620
0.020252 0.014444 -0.044725
0.020570 0.014079 -0.044829
0.020885 0.013702 -0.044932
0.021196 0.013312 -0.045034
0.021505 0.012911 -0.045135
0.021811 0.012501 -0.045235
0.022116 0.012083 -0.045335
0.022418 0.011658 -0.045435
0.022719 0.011228 -0.045534
0.023020 0.010794 -0.045633
0.023320 0.010358 -0.045733
0.023621 0.009921 -0.045832
0.023922 0.009485 -0.045931
0.024224 0.009050 -0.046030
0.024527 0.008620 -0.046130
0.024833 0.008194 -0.046230
0.025140 0.007774 -0.046330
0.025451 0.007363 -0.046431
0.025764 0.006960 -0.046532
0.026082 0.006567 -0.046634
0.026403 0.006186 -0.046736
0.026728 0.005817 -0.046838
0.027058 0.005461 -0.046941
0.027392 0.005120 -0.047045
0.027732 0.004793 -0.047149
0.028077 0.004483 -0.047253
0.028428 0.004189 -0.047358
0.028784 0.003913 -0.047464
0.029146 0.003653 -0.047569
0.029515 0.003412 -0.047676
0.029889 0.003189 -0.047783
0.030270 0.002984 -0.047890
0.030657 0.002798 -0.047998
0.031050 0.002630 -0.048106
0.031449 0.002479 -0.048215
0.031854 0.002347 -0.048325
0.032266 0.002232 -0.048435
0.032683 0.002134 -0.048546
0.033106 0.002052 -0.048658
0.033534 0.001985 -0.048771
0.033968 0.001934 -0.048884
0.034406 0.001897 -0.048999
0.034849 0.001872 -0.049114
0.035297 0.001860 -0.049231
0.035748 0.001859 -0.049348
0.036203 0.001868 -0.049467
0.036661 0.001885 -0.049586
0.037122 0.001910 -0.049707
0.037586 0.001941 -0.049828
0.038051 0.001977 -0.049950
0.038518 0.002016 -0.050073
0.038985 0.002058 -0.050197
0.039454 0.002100 -0.050321
0.039922 0.002142 -0.050446
0.040389 0.002183 -0.050571
0.040856 0.002220 -0.050696
0.041321 0.002252 -0.050822
0.041783 0.002279 -0.050947
0.042244 0.002299 -0.051071
0.042701 0.002311 -0.051196
0.043155 0.002313 -0.051319
0.043604 0.002305 -0.051442
0.044050 0.002286 -0.051563
0.044490 0.002254 -0.051683
0.044925 0.002209 -0.051801
0.045354 0.002149 -0.051918
0.045778 0.002075 -0.052032
0.046194 0.001985 -0.052144
0.046604 0.001878 -0.052254
0.047007 0.001755 -0.052362
0.047402 0.001615 -0.052467
0.047790 0.001457 -0.052569
0.048170 0.001281 -0.052668
0.048541 0.001088 -0.052765
0.048905 0.000876 -0.052858
0.049260 0.000647 -0.052948
0.049606 0.000399 -0.053035
0.049944 0.000134 -0.053119
0.050273 -0.000149 -0.053201
0.050594 -0.000449 -0.053279
0.050906 -0.000765 -0.053354
0.051210 -0.001098 -0.053426
0.051505 -0.001445 -0.053496
0.051792 -0.001807 -0.053563
0.052072 -0.002184 -0.053628
0.052343 -0.002572 -0.053690
0.052607 -0.002973 -0.053751
0.052864 -0.003385 -0.053809
0.053115 -0.003806 -0.053866
0.053359 -0.004235 -0.053922
0.053598 -0.004671 -0.053976
0.053831 -0.005113 -0.054029
0.054060 -0.005560 -0.054082
0.054284 -0.006009 -0.054134
0.054505 -0.006459 -0.054185
0.054724 -0.006909 -0.054236
0.054940 -0.007358 -0.054288
0.055155 -0.007802 -0.054339
0.055369 -0.008242 -0.054391
0.055583 -0.008675 -0.054444
0.055798 -0.009100 -0.054497
0.056014 -0.009515 -0.054551
0.056233 -0.009919 -0.054606
0.056454 -0.010309 -0.054662
0.056679 -0.010686 -0.054720
0.056909 -0.011047 -0.054778
0.057143 -0.011391 -0.054838
0.057384 -0.011717 -0.054900
0.057630 -0.012024 -0.054963
0.057884 -0.012311 -0.055027
0.058144 -0.012577 -0.055094
0.058413 -0.012822 -0.055161
0.058690 -0.013045 -0.055231
0.058975 -0.013245 -0.055303
0.059269 -0.013422 -0.055376
0.059573 -0.013577 -0.055452
0.059885 -0.013708 -0.055529
0.060207 -0.013818 -0.055609
0.060538 -0.013904 -0.055690
0.060879 -0.013969 -0.055774
0.061228 -0.014012 -0.055860
0.061587 -0.014035 -0.055949
0.061954 -0.014038 -0.056040
0.062330 -0.014022 -0.056133
0.062714 -0.013987 -0.056228
0.063107 -0.013936 -0.056326
0.063507 -0.013867 -0.056427
0.063914 -0.013783 -0.056530
0.064329 -0.013684 -0.056635
0.064751 -0.013571 -0.056743
0.065179 -0.013443 -0.056854
0.065616 -0.013302 -0.056968
0.066059 -0.013146 -0.057084
0.066510 -0.012976 -0.057204
0.066970 -0.012791 -0.057328
