# .PCD v.7 - Point Cloud Data file format
VERSION .7
FIELDS x y z
SIZE 4 4 4
TYPE F F F
COUNT 1 1 1
WIDTH 185
HEIGHT 1
POINTS 185
DATA ascii
-0.010203 0.006991 -0.037438
-0.009461 0.007688 -0.037476
-0.008752 0.008299 -0.037532
-0.008072 0.008837 -0.037602
-0.007417 0.009311 -0.037683
-0.006783 0.009731 -0.037772
-0.006168 0.010105 -0.037868
-0.005568 0.010440 -0.037970
-0.004980 0.010742 -0.038076
-0.004403 0.011016 -0.038186
-0.003835 0.011268 -0.038300
-0.003273 0.011501 -0.038416
-0.002717 0.011718 -0.038534
-0.002165 0.011922 -0.038655
-0.001616 0.012114 -0.038778
-0.001070 0.012298 -0.038902
-0.000526 0.012473 -0.039028
0.000016 0.012641 -0.039155
0.000557 0.012802 -0.039284
0.001096 0.012957 -0.039415
0.001633 0.013105 -0.039547
0.002169 0.013245 -0.039679
0.002703 0.013379 -0.039813
0.003235 0.013504 -0.039948
0.003763 0.013620 -0.040084
0.004289 0.013727 -0.040221
0.004811 0.013823 -0.040358
0.005329 0.013907 -0.040496
0.005842 0.013979 -0.040633
0.006351 0.014038 -0.040771
0.006854 0.014082 -0.040909
0.007351 0.014111 -0.041046
0.007841 0.014124 -0.041183
0.008325 0.014119 -0.041319
0.008801 0.014097 -0.041455
0.009270 0.014057 -0.041589
0.009731 0.013998 -0.041722
0.010184 0.013919 -0.041853
0.010629 0.013820 -0.041984
0.011066 0.013701 -0.042112
0.011495 0.013561 -0.042239
0.011915 0.013401 -0.042364
0.012326 0.013221 -0.042487
0.012730 0.013020 -0.042608
0.013125 0.012800 -0.042727
0.013513 0.012560 -0.042845
0.013892 0.012300 -0.042960
0.014265 0.012022 -0.043074
0.014631 0.011726 -0.043186
0.014990 0.011412 -0.043296
0.015342 0.011082 -0.043405
0.015690 0.010737 -0.043512
0.016031 0.010377 -0.043618
0.016369 0.010004 -0.043723
0.016702 0.009618 -0.043827
0.017031 0.009222 -0.043929
0.017357 0.008816 -0.044032
0.017681 0.008401 -0.044133
0.018003 0.007979 -0.044234
0.018323 0.007552 -0.044335
0.018643 0.007120 -0.044436
0.018963 0.006686 -0.044537
0.019283 0.006250 -0.044638
0.019605 0.005814 -0.044739
0.019928 0.005379 -0.044840
0.020253 0.004948 -0.044942
0.020581 0.004520 -0.045044
0.020912 0.004099 -0.045147
0.021248 0.003684 -0.045250
0.021587 0.003277 -0.045354
0.021932 0.002879 -0.045459
0.022282 0.002492 -0.045564
0.022637 0.002116 -0.045670
0.022998 0.001753 -0.045776
0.023366 0.001403 -0.045884
0.023741 0.001068 -0.045992
0.024123 0.000747 -0.046101
0.024512 0.000443 -0.046210
0.024909 0.000154 -0.046320
0.025313 -0.000118 -0.046431
0.025725 -0.000373 -0.046543
0.026145 -0.000611 -0.046655
0.026573 -0.000832 -0.046769
0.027008 -0.001035 -0.046883
0.027452 -0.001220 -0.046998
0.027904 -0.001389 -0.047114
0.028363 -0.001540 -0.047230
0.028829 -0.001675 -0.047348
0.029303 -0.001794 -0.047467
0.029784 -0.001897 -0.047587
0.030271 -0.001985 -0.047708
0.030765 -0.002059 -0.047830
0.031265 -0.002120 -0.047953
0.031770 -0.002169 -0.048078
0.032281 -0.002206 -0.048203
0.032796 -0.002232 -0.048330
0.033315 -0.002249 -0.048458
0.033837 -0.002259 -0.048588
0.034363 -0.002261 -0.048718
0.034890 -0.002258 -0.048850
0.035420 -0.002251 -0.048982
0.035951 -0.002241 -0.049116
0.036482 -0.002229 -0.049250
0.037013 -0.002218 -0.049385
0.037543 -0.002208 -0.049521
0.038072 -0.002200 -0.049657
0.038599 -0.002197 -0.049793
0.039123 -0.002199 -0.049930
0.039644 -0.002208 -0.050066
0.040160 -0.002226 -0.050202
0.040673 -0.002253 -0.050337
0.041180 -0.002292 -0.050472
0.041682 -0.002342 -0.050605
0.042177 -0.002406 -0.050737
0.042666 -0.002484 -0.050868
0.043148 -0.002578 -0.050998
0.043622 -0.002688 -0.051125
0.044088 -0.002816 -0.051251
0.044546 -0.002961 -0.051374
0.044996 -0.003126 -0.051495
0.045436 -0.003310 -0.051613
0.045867 -0.003515 -0.051729
0.046289 -0.003740 -0.051842
0.046702 -0.003985 -0.051953
0.047105 -0.004252 -0.052061
0.047498 -0.004540 -0.052166
0.047882 -0.004849 -0.052268
0.048256 -0.005179 -0.052368
0.048621 -0.005530 -0.052465
0.048976 -0.005902 -0.052560
0.049322 -0.006293 -0.052652
0.049659 -0.006704 -0.052742
0.049987 -0.007133 -0.052830
0.050307 -0.007581 -0.052916
0.050618 -0.008045 -0.053001
0.050922 -0.008525 -0.053084
0.051219 -0.009020 -0.053166
0.051509 -0.009529 -0.053247
0.051793 -0.010050 -0.053328
0.052071 -0.010582 -0.053408
0.052343 -0.011123 -0.053488
0.052612 -0.011671 -0.053568
0.052876 -0.012226 -0.053649
0.053138 -0.012785 -0.053730
0.053397 -0.013347 -0.053812
0.053654 -0.013910 -0.053895
0.053911 -0.014471 -0.053978
0.054167 -0.015030 -0.054063
0.054424 -0.015584 -0.054150
0.054683 -0.016132 -0.054238
0.054944 -0.016671 -0.054327
0.055207 -0.017200 -0.054418
0.055475 -0.017718 -0.054510
0.055747 -0.018221 -0.054604
0.056025 -0.018710 -0.054699
0.056309 -0.019182 -0.054796
0.056600 -0.019635 -0.054894
0.056898 -0.020070 -0.054994
0.057204 -0.020483 -0.055095
0.057518 -0.020874 -0.055197
0.057842 -0.021243 -0.055300
0.058175 -0.021588 -0.055404
0.058518 -0.021909 -0.055510
0.058872 -0.022204 -0.055616
0.059235 -0.022475 -0.055723
0.059609 -0.022719 -0.055831
0.059993 -0.022939 -0.055940
0.060388 -0.023133 -0.056050
0.060793 -0.023302 -0.056161
0.061208 -0.023446 -0.056272
0.061632 -0.023567 -0.056385
0.062066 -0.023664 -0.056499
0.062509 -0.023738 -0.056613
0.062960 -0.023792 -0.056729
0.063419 -0.023824 -0.056846
0.063885 -0.023838 -0.056964
0.064358 -0.023834 -0.057084
0.064837 -0.023813 -0.057205
0.065322 -0.023776 -0.057327
0.065812 -0.023724 -0.057451
0.066306 -0.023659 -0.057576
0.066804 -0.023581 -0.057702
0.067306 -0.023490 -0.057831
0.067811 -0.023387 -0.057961
0.068321 -0.023271 -0.058092
